ply
format ascii 1.0
comment PCL generated
element vertex 1557
property float x
property float y
property float z
element camera 0
property float view_px
property float view_py
property float view_pz
property float x_axisx
property float x_axisy
property float x_axisz
property float y_axisx
property float y_axisy
property float y_axisz
property float z_axisx
property float z_axisy
property float z_axisz
property float focal
property float scalex
property float scaley
property float centerx
property float centery
property int viewportx
property int viewporty
property float k1
property float k2
end_header
299.49341 -86.458023 2148.0498
300.20023 -86.458023 2148.0498
301.61377 -86.457726 2148.0481
302.32108 -86.458862 2148.0549
303.02603 -86.454819 2148.0344
352.49252 -86.461594 2148.0618
353.21265 -86.458031 2148.0498
291.19226 -85.703362 2148.4336
293.83875 -85.397766 2148.0498
294.54556 -85.397766 2148.0498
295.60583 -85.397766 2148.0498
296.66608 -85.397766 2148.0498
297.37289 -85.397766 2148.0498
298.43317 -85.397774 2148.0498
299.49341 -85.397766 2148.0498
300.55365 -85.397766 2148.0498
301.61389 -85.397766 2148.0498
302.32074 -85.397766 2148.0498
303.02753 -85.397774 2148.0498
352.49033 -85.401497 2148.0679
353.19531 -85.399521 2148.0625
293.83875 -84.337524 2148.0498
294.54556 -84.337524 2148.0498
295.25238 -84.337524 2148.0498
296.66608 -84.337524 2148.0498
297.37292 -84.337524 2148.0498
298.43317 -84.337524 2148.0498
299.49341 -84.337517 2148.0498
300.55365 -84.337524 2148.0498
301.61389 -84.337517 2148.0498
302.32074 -84.337517 2148.0498
303.02756 -84.337524 2148.0498
304.38379 -84.298592 2147.9038
351.8353 -84.332191 2148.0156
352.50586 -84.337524 2148.0498
353.19528 -84.338936 2148.0642
293.92734 -83.713623 2148.4485
294.55276 -83.640808 2148.1094
295.24915 -83.624725 2148.0083
296.66608 -83.630692 2148.0498
298.43317 -83.630692 2148.0498
299.49341 -83.630692 2148.0498
300.55365 -83.630692 2148.0498
301.61389 -83.630692 2148.0498
302.32074 -83.630692 2148.0498
303.02756 -83.630684 2148.0498
304.44067 -83.630234 2148.0471
305.47122 -83.588425 2147.9814
351.82391 -83.628372 2148.0281
352.50586 -83.630684 2148.0498
353.18857 -83.634148 2148.0715
294.61887 -83.010887 2148.2139
295.26175 -82.593689 2148.0977
296.66608 -82.923859 2148.0498
298.43317 -82.570442 2148.0498
299.49341 -82.570442 2148.0498
300.55365 -82.570435 2148.0498
301.61389 -82.570435 2148.0498
302.32071 -82.570442 2148.0498
303.02756 -82.570435 2148.0498
304.44122 -82.570435 2148.0498
305.50146 -82.570442 2148.0498
351.81467 -82.568871 2148.0371
352.55307 -82.560799 2147.9985
353.11551 -82.588142 2148.136
295.37097 -81.707527 2148.2903
298.45276 -81.523178 2148.2043
299.49341 -81.510193 2148.0498
300.90704 -81.510193 2148.0498
301.61392 -81.510193 2148.0498
302.32074 -81.510193 2148.0498
303.02756 -81.510185 2148.0498
304.44122 -81.510193 2148.0498
305.50146 -81.510193 2148.0498
307.25745 -81.493622 2147.9717
308.60156 -81.341499 2147.8235
351.802 -81.509911 2148.0471
352.53094 -81.507416 2148.0293
298.39236 -80.6101 2148.2368
299.49341 -80.449936 2148.0498
300.90707 -80.449936 2148.0498
301.61389 -80.449936 2148.0498
302.32074 -80.449936 2148.0498
303.38098 -80.449936 2148.0498
304.44122 -80.449936 2148.0498
305.50146 -80.449936 2148.0498
306.56171 -80.449936 2148.0498
307.26855 -80.449944 2148.0498
308.69098 -80.462776 2148.0852
309.33536 -80.394157 2147.915
309.95062 -79.937469 2147.6858
351.58142 -80.329414 2148.0308
352.51224 -80.449432 2148.0454
298.22406 -79.496712 2148.2109
299.47931 -79.370712 2147.9851
300.90704 -79.389687 2148.0498
301.61389 -79.389694 2148.0498
302.32074 -79.389694 2148.0498
303.38098 -79.389687 2148.0498
304.44122 -79.389694 2148.0498
305.50146 -79.389694 2148.0498
306.56174 -79.389694 2148.0498
307.26855 -79.389694 2148.0498
308.69034 -79.397423 2148.1248
309.3894 -79.390007 2148.0525
310.04327 -79.353432 2147.8462
351.44562 -79.389694 2148.0498
352.47479 -79.39238 2148.0769
298.4776 -79.034576 2148.5322
299.53525 -78.763092 2148.1777
300.90704 -78.682861 2148.0498
301.61392 -78.682861 2148.0498
302.32074 -78.682861 2148.0498
303.38098 -78.682861 2148.0498
304.44125 -78.682861 2148.0498
305.50146 -78.682854 2148.0498
306.56174 -78.682861 2148.0498
307.62198 -78.682861 2148.0498
308.68225 -78.682861 2148.0498
309.38907 -78.682854 2148.0498
310.09586 -78.682854 2148.0498
351.44562 -78.682861 2148.0498
352.4632 -78.692307 2148.0894
300.91336 -78.019264 2148.3142
301.6282 -77.657303 2148.2485
302.31851 -77.618393 2148.0249
304.44122 -77.622604 2148.0498
305.50146 -77.622604 2148.0498
306.56171 -77.622604 2148.0498
307.62198 -77.622604 2148.0498
308.68225 -77.622612 2148.0498
309.38907 -77.622604 2148.0498
310.09589 -77.622612 2148.0498
350.46057 -77.244217 2147.968
351.53674 -77.594955 2147.9165
352.42078 -77.999084 2148.1338
302.3259 -76.574181 2148.0745
305.50146 -76.562363 2148.0498
306.56174 -76.562355 2148.0498
307.62198 -76.562355 2148.0498
308.68225 -76.562355 2148.0498
309.38907 -76.562363 2148.0498
310.09589 -76.562363 2148.0498
311.49283 -76.54361 2147.9446
312.5253 -76.471367 2147.8843
350.42838 -76.548058 2148.0073
351.53348 -76.535316 2147.9658
352.24936 -76.659874 2148.3015
302.48636 -75.826775 2148.4214
305.50146 -75.502106 2148.0498
306.56171 -75.502106 2148.0498
307.62198 -75.502113 2148.0498
308.68225 -75.502106 2148.0498
309.38904 -75.502113 2148.0498
310.09589 -75.502113 2148.0498
311.50955 -75.502106 2148.0498
312.56982 -75.502113 2148.0498
313.63007 -75.148689 2148.0498
314.33688 -75.148689 2148.0498
315.67789 -75.064026 2147.9094
350.41974 -75.49765 2148.0208
351.13705 -75.489098 2148.0056
305.54065 -74.468315 2148.1274
306.54837 -74.43103 2147.9709
307.9754 -74.441856 2148.0498
308.68222 -74.441856 2148.0498
309.38907 -74.441856 2148.0498
310.09589 -74.441856 2148.0498
311.50955 -74.441856 2148.0498
312.56979 -74.441856 2148.0498
313.63007 -74.441864 2148.0498
314.33691 -74.441864 2148.0498
315.71582 -74.410355 2147.9773
350.42279 -74.437202 2148.0186
351.10898 -74.440483 2148.0337
305.65509 -73.857895 2148.2766
306.5997 -73.416985 2148.1489
307.9754 -73.381607 2148.0498
308.68222 -73.381615 2148.0498
309.38907 -73.381615 2148.0498
310.09589 -73.381615 2148.0498
311.50955 -73.381607 2148.0498
312.56982 -73.381607 2148.0498
313.63007 -73.381607 2148.0498
314.33688 -73.381607 2148.0498
315.53683 -73.279526 2148.1448
316.41235 -73.347847 2147.939
317.00049 -72.909164 2147.769
350.36911 -73.383354 2148.0608
351.08142 -73.38208 2148.0596
307.9754 -72.321365 2148.0498
308.68222 -72.321358 2148.0498
309.38904 -72.321358 2148.0498
310.44931 -72.321358 2148.0498
311.50958 -72.321358 2148.0498
312.56982 -72.321365 2148.0498
313.63007 -72.321358 2148.0498
314.33688 -72.321365 2148.0498
315.39716 -72.321358 2148.0498
316.45401 -72.317863 2148.0154
317.14441 -72.290123 2147.8811
350.35132 -72.327606 2148.0752
351.08121 -72.322624 2148.0605
308.69531 -71.630417 2148.1523
309.38416 -71.609718 2148.01
310.44931 -71.614525 2148.0498
311.50952 -71.614525 2148.0498
312.56982 -71.614525 2148.0498
313.63004 -71.614525 2148.0498
314.33691 -71.614532 2148.0498
315.39716 -71.614525 2148.0498
316.45737 -71.614525 2148.0498
317.16422 -71.614525 2148.0498
349.75729 -71.599518 2147.9851
350.34576 -71.623253 2148.0933
351.0574 -71.620834 2148.0864
308.74765 -70.63958 2148.1975
309.40762 -70.598793 2148.1355
310.45456 -70.931168 2148.1709
311.50955 -70.907692 2148.0498
312.56982 -70.554276 2148.0498
313.63007 -70.554276 2148.0498
314.33691 -70.554283 2148.0498
315.39713 -70.554276 2148.0498
316.4574 -70.554276 2148.0498
317.51764 -70.554276 2148.0498
318.55838 -70.183029 2147.9875
319.14261 -70.399376 2147.7976
349.66858 -70.557098 2148.0591
350.38538 -70.554276 2148.0498
351.04709 -70.917999 2148.1006
308.97879 -69.959618 2148.623
312.56982 -69.494034 2148.0498
313.63007 -69.494034 2148.0498
314.33691 -69.494034 2148.0498
315.39716 -69.494034 2148.0498
316.45737 -69.494026 2148.0498
317.51764 -69.494034 2148.0498
318.57812 -69.494263 2148.052
319.62607 -69.478508 2148.0073
320.64346 -69.394371 2147.8489
349.07083 -69.464722 2147.9407
349.63736 -69.505508 2148.0989
350.38522 -69.494064 2148.05
312.67361 -68.47934 2148.5273
313.63293 -68.434975 2148.0706
314.33691 -68.433777 2148.0498
315.39713 -68.433777 2148.0498
316.4574 -68.433777 2148.0498
317.51764 -68.433777 2148.0498
318.57788 -68.433777 2148.0498
319.63812 -68.433777 2148.0498
320.69839 -68.433777 2148.0498
322.83234 -68.093407 2148.0779
323.3988 -67.961784 2147.8733
348.98962 -68.430786 2148.0308
349.67853 -68.433777 2148.0498
350.35696 -68.795677 2148.0806
313.02017 -67.428299 2148.2617
313.60614 -67.356331 2147.9705
314.33688 -67.373528 2148.0498
315.39716 -67.373535 2148.0498
316.4574 -67.373528 2148.0498
317.51764 -67.373528 2148.0498
318.57788 -67.373528 2148.0498
319.63812 -67.373528 2148.0498
320.69839 -67.373535 2148.0498
321.40524 -67.373535 2148.0498
322.50418 -67.40123 2148.1541
323.39166 -67.253532 2147.8091
348.98816 -67.371544 2148.0347
349.68954 -67.372292 2148.0398
312.98724 -66.711136 2148.1458
315.75055 -66.666695 2148.0498
316.4574 -66.666702 2148.0498
317.51764 -66.666695 2148.0498
318.57788 -66.666695 2148.0498
319.63812 -66.666695 2148.0498
320.69839 -66.666695 2148.0498
321.40521 -66.666695 2148.0498
322.47681 -66.674736 2148.1042
323.43069 -66.590973 2147.8345
348.97827 -66.666214 2148.0439
349.68152 -66.666229 2148.0474
313.24026 -66.021416 2148.6431
315.75055 -65.606445 2148.0498
316.4574 -65.606445 2148.0498
317.51764 -65.606445 2148.0498
318.57788 -65.606445 2148.0498
319.63812 -65.606445 2148.0498
320.69836 -65.606445 2148.0498
321.40521 -65.606445 2148.0498
322.46405 -65.605728 2148.0332
323.50574 -65.591148 2147.9541
324.17297 -65.536186 2147.7549
348.95987 -65.607689 2148.0605
349.67575 -65.60675 2148.0518
315.75055 -64.546196 2148.0498
316.4574 -64.546204 2148.0498
317.16425 -64.546196 2148.0498
318.57788 -64.546196 2148.0498
319.63812 -64.546204 2148.0498
320.69839 -64.546196 2148.0498
321.40521 -64.546196 2148.0498
322.46545 -64.546204 2148.0498
323.52573 -64.546204 2148.0498
324.58597 -64.546204 2148.0498
326.32816 -64.497482 2147.9678
326.98541 -64.395401 2147.8635
348.62982 -64.544739 2148.0398
349.65024 -64.551071 2148.0708
315.76724 -63.557888 2148.1443
316.4502 -63.568764 2148.155
317.17166 -63.853832 2148.1052
319.63812 -63.485947 2148.0498
320.69839 -63.485947 2148.0498
321.40521 -63.48595 2148.0498
322.46548 -63.48595 2148.0498
323.52573 -63.485947 2148.0498
324.23257 -63.485947 2148.0498
325.64621 -63.485947 2148.0498
326.35303 -63.485947 2148.0498
327.29556 -63.368225 2148.05
328.42487 -63.067066 2147.9045
348.61545 -63.486538 2148.0522
319.63812 -62.425697 2148.0498
320.69836 -62.425697 2148.0498
321.40521 -62.425697 2148.0498
322.46548 -62.425701 2148.0498
323.52573 -62.425701 2148.0498
324.58597 -62.425697 2148.0498
325.64624 -62.425697 2148.0498
326.35306 -62.425697 2148.0498
327.4133 -62.425697 2148.0498
328.47354 -62.425697 2148.0498
348.61829 -62.425697 2148.0498
319.62799 -61.34655 2147.9968
320.69836 -61.365448 2148.0498
321.40521 -61.365448 2148.0498
322.46545 -61.365448 2148.0498
323.52573 -61.365448 2148.0498
324.58597 -61.365448 2148.0498
325.64621 -61.365448 2148.0498
326.35306 -61.365452 2148.0498
327.4133 -61.365448 2148.0498
328.47354 -61.365448 2148.0498
329.54117 -61.017715 2148.0735
330.43811 -61.195461 2147.7808
348.61832 -61.365448 2148.0498
319.74438 -60.491364 2148.3333
322.46545 -60.305199 2148.0498
323.52573 -60.305199 2148.0498
324.586 -60.305199 2148.0498
325.64624 -60.305199 2148.0498
326.35306 -60.305199 2148.0498
327.41327 -60.305199 2148.0498
328.47354 -60.305199 2148.0498
329.53894 -60.309315 2148.0906
330.57532 -60.28104 2147.9771
331.25739 -60.213337 2147.8525
348.61829 -60.305199 2148.0498
322.81888 -59.598366 2148.0498
323.52573 -59.598366 2148.0498
324.586 -59.598366 2148.0498
325.64621 -59.598366 2148.0498
326.35303 -59.598366 2148.0498
327.4133 -59.598366 2148.0498
328.47354 -59.59837 2148.0498
329.53381 -59.598366 2148.0498
330.59467 -59.599503 2148.0583
331.30099 -59.59866 2148.0513
332.62704 -59.506279 2147.8252
347.5528 -59.599171 2148.0544
348.61829 -59.598366 2148.0498
322.81891 -58.538116 2148.0498
323.5257 -58.538116 2148.0498
324.58597 -58.538116 2148.0498
325.64621 -58.538116 2148.0498
326.35306 -58.538116 2148.0498
327.41333 -58.538116 2148.0498
328.47357 -58.538116 2148.0498
329.53381 -58.538113 2148.0498
330.59406 -58.538116 2148.0498
331.3009 -58.538116 2148.0498
332.48557 -58.427715 2148.0979
333.41788 -58.177231 2148.0071
334.10349 -58.474522 2147.9441
335.44009 -58.080013 2147.8589
347.54892 -58.540821 2148.0593
348.62674 -58.535957 2148.042
323.5766 -57.512905 2148.1917
324.93939 -57.477867 2148.0498
325.64621 -57.477867 2148.0498
326.35306 -57.477871 2148.0498
327.4133 -57.477867 2148.0498
328.47354 -57.477867 2148.0498
329.53381 -57.477867 2148.0498
330.59406 -57.477871 2148.0498
331.3009 -57.477867 2148.0498
332.36115 -57.477867 2148.0498
333.42139 -57.477871 2148.0498
334.48163 -57.477867 2148.0498
335.51062 -57.453918 2147.9487
347.5903 -57.469875 2148.0244
348.24292 -57.483158 2148.0657
323.64728 -56.539356 2148.2798
324.93939 -56.771034 2148.0498
326.35303 -56.417618 2148.0498
327.4133 -56.417618 2148.0498
328.47354 -56.771038 2148.0498
329.53381 -56.417618 2148.0498
330.59406 -56.417622 2148.0498
331.30087 -56.417618 2148.0498
332.36115 -56.417618 2148.0498
333.42139 -56.417618 2148.0498
334.48163 -56.417622 2148.0498
335.54187 -56.417618 2148.0498
346.88519 -56.409916 2148.0127
347.58881 -56.410744 2148.031
348.15234 -56.798397 2148.1328
323.85019 -55.638378 2148.5061
326.35306 -55.357368 2148.0498
327.4133 -55.357368 2148.0498
329.53378 -55.357368 2148.0498
330.59406 -55.357368 2148.0498
331.30087 -55.357372 2148.0498
332.36115 -55.357372 2148.0498
333.42139 -55.357368 2148.0498
334.48163 -55.357368 2148.0498
335.5419 -55.357368 2148.0498
336.92325 -55.328381 2147.9729
346.86728 -55.354637 2148.0349
347.57928 -55.354717 2148.0376
326.36273 -54.700344 2148.2017
327.74841 -54.627125 2147.9414
329.53381 -54.650536 2148.0498
330.59406 -54.650536 2148.0498
331.30087 -54.650536 2148.0498
332.36115 -54.650536 2148.0498
333.42139 -54.650536 2148.0498
334.48163 -54.650536 2148.0498
335.5419 -54.650539 2148.0498
336.95703 -54.652973 2148.0618
337.6243 -54.592304 2147.9141
338.27087 -54.501663 2147.8123
346.85773 -54.649708 2148.0439
347.56012 -54.650169 2148.0483
326.73132 -54.169708 2148.374
327.78809 -53.625706 2148.0996
329.53381 -53.590286 2148.0498
330.59406 -53.590286 2148.0498
331.3009 -53.590286 2148.0498
332.36115 -53.590286 2148.0498
333.42139 -53.590286 2148.0498
334.48163 -53.590282 2148.0498
335.54187 -53.590286 2148.0498
336.95554 -53.590286 2148.0498
337.6684 -53.601269 2148.1223
338.36987 -53.595085 2148.0742
339.543 -53.467091 2148.0278
341.06564 -53.312 2147.6924
346.84042 -53.590488 2148.0591
347.55603 -53.590328 2148.0513
328.04065 -52.959553 2148.5518
329.54004 -52.553352 2148.1787
330.60059 -52.544029 2148.1938
332.00772 -52.530037 2148.0498
333.42139 -52.530037 2148.0498
334.48163 -52.530037 2148.0498
335.54187 -52.530037 2148.0498
336.60211 -52.530037 2148.0498
337.66238 -52.530037 2148.0498
338.3692 -52.530037 2148.0498
339.07605 -52.530037 2148.0498
341.20483 -52.544647 2148.0964
346.48392 -52.53511 2148.0674
347.52499 -52.537418 2148.0793
330.65543 -51.498806 2148.2146
332.00772 -51.469788 2148.0498
333.42139 -51.469788 2148.0498
334.48163 -51.469788 2148.0498
335.54187 -51.469788 2148.0498
336.60211 -51.469788 2148.0498
337.66235 -51.469788 2148.0498
338.3692 -51.469788 2148.0498
339.07605 -51.469788 2148.0498
341.19653 -51.469788 2148.0498
342.62363 -51.478687 2148.0852
344.0231 -50.924179 2147.7244
346.8512 -51.469788 2148.0498
347.50705 -51.489944 2148.0986
330.69012 -50.505749 2148.1895
333.42136 -50.409538 2148.0498
334.48163 -50.409538 2148.0498
336.60211 -50.409538 2148.0498
337.66235 -50.409534 2148.0498
338.3692 -50.409538 2148.0498
339.07608 -50.409538 2148.0498
341.54996 -50.409538 2148.0498
342.6102 -50.409538 2148.0498
344.02661 -50.420364 2148.0776
345.45462 -50.383564 2147.9473
346.15143 -50.404232 2148.0142
330.8313 -49.952396 2148.3982
333.42136 -49.702705 2148.0498
334.48166 -49.702705 2148.0498
336.60211 -49.702705 2148.0498
337.66235 -49.702705 2148.0498
338.3692 -49.702705 2148.0498
339.07605 -49.702705 2148.0498
341.54996 -49.702705 2148.0498
342.6102 -49.702705 2148.0498
344.37729 -49.702705 2148.0498
345.43628 -49.70892 2148.0898
346.14435 -49.702705 2148.0498
331.00848 -49.544647 2148.7554
333.42139 -48.642456 2148.0498
334.48163 -48.642456 2148.0498
336.48434 -48.760265 2148.0498
337.66238 -48.642456 2148.0498
338.36923 -48.642456 2148.0498
339.07605 -48.642452 2148.0498
341.54993 -48.642456 2148.0498
342.6102 -48.642456 2148.0498
343.31702 -48.28904 2148.0498
344.37732 -48.642456 2148.0498
345.43756 -48.642456 2148.0498
346.14438 -48.642456 2148.0498
333.46371 -47.609768 2148.1177
334.83505 -47.582207 2148.0498
336.24872 -47.582207 2148.0498
337.66238 -47.582207 2148.0498
338.36923 -47.582207 2148.0498
339.07605 -47.582207 2148.0498
340.48972 -47.582207 2148.0498
341.54999 -47.582207 2148.0498
342.61023 -47.582207 2148.0498
343.31705 -47.582203 2148.0498
344.37732 -47.582207 2148.0498
345.43753 -47.582207 2148.0498
346.14438 -47.582207 2148.0498
333.56207 -46.772423 2148.3284
334.85623 -46.597713 2148.1338
336.25629 -46.892941 2148.1606
337.66238 -46.521957 2148.0498
338.3692 -46.521957 2148.0498
339.07605 -46.521957 2148.0498
341.54993 -46.521957 2148.0498
342.61023 -46.521957 2148.0498
343.31702 -46.521957 2148.0498
344.37726 -46.521957 2148.0498
345.43756 -46.521954 2148.0498
346.10178 -46.522263 2148.1562
337.69821 -45.48476 2148.2332
339.07605 -45.461708 2148.0498
341.54996 -45.461708 2148.0498
342.6102 -45.461708 2148.0498
343.31705 -45.461708 2148.0498
344.37732 -45.461708 2148.0498
345.43753 -45.461708 2148.0498
346.09528 -45.46315 2148.1655
337.7952 -44.437412 2148.1636
339.07602 -44.754875 2148.0498
341.54999 -44.401459 2148.0498
342.6102 -44.401459 2148.0498
343.31705 -44.401459 2148.0498
344.37732 -44.401455 2148.0498
345.43344 -44.402912 2148.0706
346.02115 -44.421638 2148.2334
337.66696 -43.340275 2148.0515
341.54996 -43.341209 2148.0498
343.31708 -43.341209 2148.0498
344.37732 -43.341209 2148.0498
345.41257 -43.346081 2148.0996
337.86688 -42.658646 2148.146
341.57974 -42.667351 2148.1201
343.31702 -42.634373 2148.0498
344.37732 -42.634377 2148.0498
345.38559 -42.653854 2148.1243
342.00143 -42.071247 2148.2808
343.33389 -41.946629 2148.1492
344.37732 -41.574127 2148.0498
345.33585 -41.955505 2148.1711
344.61212 -40.552876 2148.1462
344.54767 -39.5826 2148.2173
344.61115 -39.361191 2148.7791
374.57468 -199.40747 2150.4219
373.52286 -198.34236 2150.4084
374.24887 -198.40126 2150.6521
373.45657 -197.64865 2150.4578
374.47852 -197.65535 2150.4878
373.43311 -196.59125 2150.4746
374.13879 -196.59122 2150.4751
373.53625 -195.51253 2150.4187
373.99734 -195.55826 2150.5767
372.8161 -194.45157 2150.4065
373.30313 -194.49078 2150.5444
372.73224 -193.40677 2150.4688
373.43369 -193.40749 2150.4744
372.71811 -192.70065 2150.479
373.42722 -192.7005 2150.4783
372.71817 -191.63919 2150.479
373.42578 -191.63919 2150.479
372.71826 -190.57774 2150.479
373.42587 -190.57776 2150.479
372.72003 -189.51605 2150.478
373.42148 -189.51694 2150.4822
372.69284 -188.46112 2150.4934
372.31949 -187.40475 2150.5029
372.05365 -186.32323 2150.4524
371.94595 -185.63744 2150.519
371.32352 -184.56059 2150.4658
371.88782 -184.58009 2150.5576
371.29706 -183.50204 2150.4832
372.01062 -183.50142 2150.479
371.28821 -182.44208 2150.4888
371.99905 -182.44086 2150.489
371.44617 -181.35025 2150.3899
371.94281 -181.39034 2150.5352
370.67133 -180.65814 2150.4214
371.3396 -180.6636 2150.4568
371.85641 -180.7045 2150.6052
279.31076 -179.25565 2150.479
370.61386 -179.6068 2150.4636
371.33359 -179.60387 2150.46
279.31073 -178.54802 2150.4792
370.60873 -178.547 2150.469
371.31461 -178.54648 2150.4717
279.23401 -177.47989 2150.4536
370.59039 -177.48692 2150.4829
371.28665 -177.48811 2150.4895
279.40195 -176.43707 2150.5081
370.74487 -176.40434 2150.3823
371.23309 -176.43155 2150.5269
279.53241 -175.74846 2150.5479
279.76199 -175.32466 2150.3948
369.8877 -175.36366 2150.479
370.64847 -175.35768 2150.4417
371.21143 -175.0219 2150.5425
280.02472 -174.30334 2150.4814
369.88766 -174.30222 2150.479
370.64017 -174.28967 2150.4355
371.17276 -174.32408 2150.5786
280.06616 -173.60408 2150.4993
369.8877 -173.59457 2150.479
370.63092 -173.58411 2150.4482
280.0184 -172.53311 2150.479
369.56778 -172.5273 2150.4485
370.58743 -172.53537 2150.4854
369.53381 -171.47168 2150.479
280.0184 -170.05641 2150.479
369.53577 -170.41 2150.4778
280.02737 -169.35017 2150.4822
369.53235 -169.34897 2150.4797
369.54041 -168.64021 2150.4753
368.57697 -167.54646 2150.4055
369.41559 -167.69771 2150.4792
280.69437 -166.51434 2150.4707
368.4462 -166.52385 2150.4988
369.18066 -166.51813 2150.4785
280.72552 -165.45679 2150.479
367.89996 -165.08151 2150.3713
368.43115 -165.46487 2150.5107
369.16467 -165.81392 2150.4932
280.72986 -164.39551 2150.4807
367.81818 -164.38614 2150.4353
368.41553 -164.40663 2150.5359
369.15479 -164.39822 2150.5012
280.72867 -163.68774 2150.4802
367.78195 -163.68654 2150.4646
368.52084 -163.6804 2150.429
369.09387 -163.69917 2150.5527
280.72607 -162.62628 2150.479
367.78067 -162.62552 2150.4668
368.50296 -162.62334 2150.4558
280.72601 -161.56482 2150.4792
367.78052 -161.56311 2150.4688
368.4826 -161.56293 2150.4712
280.7261 -160.5034 2150.479
367.75412 -160.5054 2150.4849
368.48001 -160.85562 2150.4729
367.45044 -159.43396 2150.4534
281.38412 -158.37433 2150.4636
367.41098 -158.38048 2150.479
281.43362 -157.31905 2150.4792
367.41101 -157.31903 2150.479
281.43369 -156.61139 2150.479
367.41098 -156.61139 2150.479
281.4408 -155.55017 2150.4812
367.41058 -155.55003 2150.4792
281.43372 -154.48851 2150.479
366.35959 -154.48618 2150.4712
367.40311 -154.48956 2150.4851
281.47272 -153.42825 2150.4932
366.33667 -153.42995 2150.489
367.05765 -153.42699 2150.4785
366.32037 -152.37196 2150.5024
367.04846 -152.3669 2150.4878
365.71967 -151.64632 2150.417
366.46619 -151.63809 2150.4004
367.01978 -151.66623 2150.512
365.66229 -150.5939 2150.4624
366.3909 -150.58836 2150.4507
366.89862 -150.98389 2150.6135
365.6586 -149.53363 2150.4661
366.37546 -149.53198 2150.4626
365.65466 -148.47261 2150.469
366.35526 -148.47327 2150.4753
365.63657 -147.41292 2150.4844
366.3363 -147.41269 2150.4885
365.64194 -146.70454 2150.479
366.3327 -146.70547 2150.4922
364.97818 -145.27847 2150.4355
365.64191 -145.6431 2150.479
366.31937 -145.64731 2150.5056
364.94366 -144.57954 2150.4697
365.70078 -144.56279 2150.4075
366.28992 -144.59785 2150.5344
282.1413 -143.5202 2150.479
364.59433 -143.51553 2150.4646
365.70395 -143.85226 2150.4202
366.20624 -143.92793 2150.6235
282.09137 -142.45203 2150.4612
364.58841 -142.45714 2150.4717
282.23541 -141.41156 2150.5105
364.58231 -141.39708 2150.4778
282.48483 -140.33394 2150.4756
364.58289 -140.33565 2150.4775
282.73404 -139.60181 2150.4412
364.58493 -139.62785 2150.4763
282.84894 -138.92059 2150.4792
363.64648 -138.5442 2150.3835
364.44925 -138.68677 2150.4873
364.56396 -137.5088 2150.4915
363.52298 -136.44331 2150.4766
364.24506 -136.44106 2150.4661
363.5199 -135.38222 2150.4785
363.52005 -134.67461 2150.4788
362.98572 -133.22656 2150.3755
363.51587 -133.61385 2150.4805
362.85727 -132.54349 2150.4531
363.26334 -132.59874 2150.6287
362.9248 -131.4659 2150.416
363.4014 -131.51756 2150.5625
362.65475 -130.40096 2150.3748
362.45596 -129.3678 2150.48
362.45755 -128.30611 2150.479
362.45953 -127.59824 2150.4778
362.30606 -126.65976 2150.5015
361.43335 -125.46931 2150.4497
362.43866 -125.47752 2150.4937
361.39694 -124.41396 2150.478
362.44733 -124.41477 2150.4885
361.39612 -123.35268 2150.479
362.10831 -123.35196 2150.4746
361.39609 -122.64504 2150.479
362.0918 -122.64748 2150.4897
360.7196 -121.57906 2150.4536
361.43063 -121.57714 2150.4524
362.0108 -121.60455 2150.5522
360.69559 -120.52051 2150.4736
361.41486 -120.51791 2150.4653
360.67117 -119.46394 2150.4917
361.38843 -119.46169 2150.4849
360.13318 -118.37034 2150.3472
360.6452 -118.40675 2150.5103
361.37234 -118.40143 2150.4988
284.26416 -117.69161 2150.479
360.04495 -117.68222 2150.4209
360.63599 -117.70057 2150.5261
284.26419 -116.63017 2150.479
359.98987 -116.6292 2150.47
360.72968 -116.62222 2150.4363
361.28467 -116.64969 2150.5791
284.26419 -115.56873 2150.4792
359.97473 -115.56944 2150.4856
360.71384 -115.56377 2150.4575
284.26419 -114.50728 2150.479
359.65784 -114.49889 2150.45
360.6843 -114.50846 2150.4819
284.26419 -113.44583 2150.479
359.62854 -113.4455 2150.478
284.26416 -112.73819 2150.479
359.60965 -112.38756 2150.4902
359.26556 -111.32395 2150.4832
359.27176 -110.61549 2150.4797
359.27701 -109.55334 2150.4773
358.65405 -108.4743 2150.4246
359.09479 -108.52303 2150.5842
284.9718 -107.43095 2150.479
358.53043 -107.4383 2150.5015
359.25317 -107.43491 2150.4951
284.9718 -106.3695 2150.479
357.89178 -106.36217 2150.4565
358.54056 -106.3748 2150.4944
359.17776 -106.38682 2150.552
284.9718 -105.66187 2150.479
357.86893 -105.65979 2150.4709
358.44373 -105.68743 2150.5554
284.9718 -104.60042 2150.479
357.66919 -104.47512 2150.4395
358.58044 -104.59705 2150.468
284.97183 -103.53897 2150.4792
357.92191 -103.52895 2150.4395
358.47745 -103.55979 2150.5474
284.9718 -102.47752 2150.479
357.68109 -102.3474 2150.4434
284.97177 -101.41608 2150.479
357.50623 -101.4158 2150.4778
284.9718 -100.70844 2150.479
357.50226 -100.35466 2150.4802
285.67542 -99.292503 2150.4771
357.50415 -99.293182 2150.479
285.68607 -98.586594 2150.4822
357.50412 -98.585541 2150.479
285.67944 -97.524094 2150.479
357.50412 -97.524094 2150.479
285.67944 -96.462654 2150.4792
357.4971 -96.464729 2150.4854
285.67978 -95.401276 2150.479
355.73306 -95.048355 2150.4812
357.16586 -95.393463 2150.4639
285.67932 -94.339706 2150.479
355.73807 -94.338715 2150.4763
357.02509 -94.410927 2150.6116
286.72769 -93.482452 2150.2405
355.73502 -93.632126 2150.479
287.14478 -92.575943 2150.5083
355.73151 -92.570709 2150.4812
286.90964 -91.522034 2150.3882
355.73468 -91.509232 2150.4792
286.75729 -90.426666 2150.6514
286.84973 -90.456528 2150.3584
355.72064 -90.449135 2150.4883
356.43173 -90.095184 2150.4868
286.69156 -89.382828 2150.6177
287.01682 -89.375961 2150.4436
355.37192 -89.387749 2150.4846
356.33856 -89.404015 2150.5544
286.60736 -88.707756 2150.5894
287.03891 -88.666451 2150.4512
355.38632 -88.677361 2150.4751
286.39725 -87.619621 2150.4976
287.45367 -87.618752 2150.4836
288.4187 -87.155014 2150.2339
355.3931 -87.613678 2150.4707
286.38708 -86.555801 2150.479
287.44855 -86.555801 2150.479
288.50998 -86.555801 2150.479
354.33417 -86.552994 2150.4685
355.37592 -86.556686 2150.4832
286.38708 -85.494354 2150.479
287.44855 -85.494354 2150.479
288.50998 -85.494347 2150.479
289.69608 -85.383118 2150.4956
290.53583 -85.400581 2150.3352
354.32013 -85.494316 2150.4788
355.26178 -85.61248 2150.4805
286.38708 -84.432899 2150.479
287.44855 -84.432899 2150.479
288.50998 -84.432899 2150.479
289.58328 -84.446327 2150.5771
290.63705 -84.437752 2150.5
291.27054 -84.356766 2150.1807
354.32574 -84.431908 2150.4751
355.02744 -84.432907 2150.479
287.45496 -83.37355 2150.501
288.50998 -83.371445 2150.479
289.57141 -83.371452 2150.479
290.63287 -83.371452 2150.479
291.34052 -83.371445 2150.479
292.04816 -83.371445 2150.479
354.30981 -83.373367 2150.4849
355.0274 -83.371452 2150.4792
287.49161 -82.317001 2150.5571
288.50998 -82.310005 2150.479
289.57144 -82.310005 2150.479
290.63287 -82.310013 2150.479
291.34048 -82.309998 2150.479
292.04816 -82.310005 2150.479
294.34912 -82.105515 2150.1948
354.30078 -82.313553 2150.4905
287.5065 -81.605003 2150.5564
288.51001 -81.602371 2150.479
289.57144 -81.602371 2150.479
290.63287 -81.602364 2150.479
291.34052 -81.602371 2150.479
292.04813 -81.602371 2150.479
293.47604 -81.619438 2150.5532
294.49445 -81.555473 2150.4153
353.71414 -81.591095 2150.4089
354.15305 -81.626328 2150.5757
287.50299 -80.542938 2150.5488
288.50998 -80.540924 2150.479
289.57141 -80.540924 2150.479
290.63287 -80.540924 2150.479
291.34052 -80.540924 2150.479
292.40195 -80.540924 2150.479
293.46341 -80.540924 2150.479
294.53555 -80.554718 2150.5474
295.56821 -80.497238 2150.2927
297.60806 -80.082291 2150.3257
353.61215 -80.540924 2150.479
354.31952 -80.540962 2150.4792
287.55328 -79.496971 2150.5898
288.5051 -79.476883 2150.4456
289.57141 -79.479477 2150.479
290.63287 -79.479469 2150.479
291.34052 -79.479469 2150.479
292.40198 -79.479477 2150.479
293.46338 -79.479469 2150.479
294.52487 -79.479477 2150.479
295.5863 -79.479469 2150.479
296.29395 -79.479469 2150.479
297.63095 -79.398689 2150.3435
353.59912 -79.481239 2150.4868
354.30576 -79.481331 2150.4888
287.77493 -78.546257 2150.6934
288.50146 -78.414734 2150.4509
289.92523 -78.41803 2150.479
290.63287 -78.418015 2150.479
291.34048 -78.418022 2150.479
292.40198 -78.41803 2150.479
293.46341 -78.41803 2150.479
294.52484 -78.418022 2150.479
295.5863 -78.418015 2150.479
296.29395 -78.418022 2150.479
297.46191 -78.288116 2150.4148
298.35336 -78.002151 2150.3376
299.02951 -77.924866 2150.2673
353.58496 -78.421677 2150.4946
354.30054 -78.774353 2150.4937
288.48575 -77.340393 2150.4275
289.92523 -77.356575 2150.479
290.6329 -77.356583 2150.479
291.34052 -77.356575 2150.479
292.40195 -77.356575 2150.479
293.46338 -77.356575 2150.479
294.52484 -77.356575 2150.479
295.5863 -77.356575 2150.479
296.29395 -77.356575 2150.479
297.35275 -77.353043 2150.4287
298.40866 -77.348991 2150.4409
299.11087 -77.329842 2150.3972
353.1629 -77.297325 2150.3
353.46295 -77.380905 2150.5574
288.04495 -76.809036 2150.8171
289.93201 -76.688538 2150.613
290.64178 -76.672081 2150.6047
291.34338 -76.655327 2150.5444
292.40198 -76.648941 2150.479
293.46338 -76.648941 2150.479
294.52487 -76.648941 2150.479
295.5863 -76.648941 2150.479
296.29395 -76.648949 2150.479
297.35541 -76.648941 2150.479
298.41684 -76.648949 2150.479
299.12445 -76.648941 2150.479
301.43387 -76.490051 2150.2632
353.40115 -76.692162 2150.5967
288.1777 -76.296898 2151.074
290.66034 -76.025604 2150.6372
291.35458 -75.60865 2150.5437
292.75577 -75.587494 2150.479
293.46341 -75.941307 2150.479
294.52487 -75.587494 2150.479
295.5863 -75.587494 2150.479
296.29395 -75.587494 2150.479
297.35538 -75.587494 2150.479
298.41684 -75.587494 2150.479
299.12448 -75.587494 2150.479
300.53973 -75.233673 2150.479
301.5813 -75.565598 2150.4377
352.71634 -75.563004 2150.3489
353.31973 -75.620728 2150.6506
291.37726 -74.564636 2150.5405
294.52484 -74.526047 2150.479
295.5863 -74.526047 2150.479
296.29395 -74.526047 2150.479
297.35541 -74.526047 2150.479
298.41681 -74.526047 2150.479
299.47827 -74.526047 2150.479
300.53973 -74.526047 2150.479
301.6076 -74.530983 2150.5103
302.60367 -74.459831 2150.1736
352.55017 -74.526108 2150.4795
353.61508 -74.525681 2150.4768
291.74228 -74.00988 2150.731
294.52484 -73.4646 2150.479
295.5863 -73.4646 2150.479
296.29395 -73.4646 2150.479
297.35535 -73.4646 2150.479
298.41684 -73.4646 2150.479
299.47827 -73.4646 2150.479
300.53973 -73.4646 2150.479
301.60117 -73.4646 2150.479
302.66263 -73.4646 2150.479
304.75922 -73.431511 2150.4104
305.38916 -72.967468 2150.2507
352.55066 -73.4646 2150.479
353.58762 -73.468658 2150.498
294.5643 -72.432457 2150.5688
295.57303 -72.388123 2150.386
296.29395 -72.403152 2150.479
297.35538 -72.403152 2150.479
298.41684 -72.403152 2150.479
299.4783 -72.403152 2150.479
300.53973 -72.403145 2150.479
301.6012 -72.403152 2150.479
302.66263 -72.403145 2150.479
304.79849 -72.422737 2150.571
305.47864 -72.382614 2150.4312
352.55063 -72.403168 2150.479
294.60251 -71.796219 2150.6458
295.5856 -71.694511 2150.4761
297.35538 -71.695511 2150.479
298.41684 -71.695511 2150.479
299.47827 -71.695518 2150.479
300.53973 -71.695518 2150.479
301.6012 -71.695511 2150.479
302.66263 -71.695518 2150.479
303.37027 -71.695518 2150.479
304.43173 -71.695511 2150.479
305.49316 -71.695511 2150.479
352.5509 -71.695503 2150.479
295.02582 -71.208488 2150.7979
297.35541 -70.634071 2150.479
298.41684 -70.634071 2150.479
299.47827 -70.634071 2150.479
300.53973 -70.634064 2150.479
301.60117 -70.634071 2150.479
302.66263 -70.634064 2150.479
303.37024 -70.634064 2150.479
304.4317 -70.634071 2150.479
305.49313 -70.634071 2150.479
306.20081 -70.634071 2150.479
308.14841 -70.023659 2150.0935
352.55057 -70.634079 2150.479
297.73267 -69.601982 2150.5837
298.40833 -69.56089 2150.4348
299.47827 -69.572617 2150.479
300.53973 -69.572617 2150.479
301.6012 -69.572617 2150.479
302.66263 -69.572617 2150.479
303.37024 -69.572617 2150.479
304.4317 -69.572624 2150.479
305.49313 -69.572624 2150.479
306.55463 -69.572617 2150.479
308.28964 -69.517029 2150.3848
309.08301 -69.461044 2150.197
352.55072 -69.572617 2150.479
297.82147 -69.019226 2150.7217
299.13043 -68.871559 2150.4976
300.53973 -68.511169 2150.479
301.60117 -68.511169 2150.479
302.66263 -68.511169 2150.479
303.37027 -68.511169 2150.479
304.4317 -68.511169 2150.479
305.49316 -68.511169 2150.479
306.55463 -68.511169 2150.479
308.31738 -68.49926 2150.3962
309.38214 -68.501877 2150.4299
351.49445 -68.50956 2150.4741
352.55313 -68.51075 2150.4768
301.60117 -67.449722 2150.479
302.66263 -67.449722 2150.479
303.37027 -67.449722 2150.479
304.4317 -67.449722 2150.479
305.49316 -67.449722 2150.479
306.5546 -67.449722 2150.479
307.61606 -67.449722 2150.479
308.32367 -67.449722 2150.479
309.38513 -67.449722 2150.479
312.39273 -67.4235 2150.3721
351.4725 -67.455307 2150.4993
352.55777 -67.447777 2150.4724
300.63855 -66.856972 2150.7495
301.60828 -66.398483 2150.5002
302.66315 -66.742905 2150.4856
303.37024 -66.742088 2150.479
304.4317 -66.388275 2150.479
305.49316 -66.388275 2150.479
306.5546 -66.388275 2150.479
307.61606 -66.388275 2150.479
308.32367 -66.388275 2150.479
309.38513 -66.388275 2150.479
311.15421 -66.034454 2150.479
312.48566 -66.358635 2150.4172
350.82181 -66.025589 2150.4414
351.48923 -66.388275 2150.479
352.18707 -66.390556 2150.4868
302.03021 -65.438927 2150.636
304.4317 -65.326828 2150.479
305.49316 -65.326828 2150.479
306.5546 -65.32682 2150.479
307.61603 -65.326828 2150.479
308.3237 -65.326828 2150.479
309.38513 -65.326828 2150.479
311.50351 -65.324379 2150.4417
312.61813 -65.348244 2150.5376
350.80865 -65.318825 2150.4558
351.53006 -65.312889 2150.4402
352.10635 -65.355331 2150.552
302.23337 -64.987823 2150.9827
304.78552 -64.619194 2150.4792
305.49316 -64.619194 2150.479
306.5546 -64.619194 2150.479
307.61606 -64.619194 2150.479
308.3237 -64.619194 2150.479
309.38513 -64.619194 2150.479
311.51517 -64.628036 2150.5471
312.54892 -64.607834 2150.3833
313.89081 -64.484879 2150.0728
350.7836 -64.618721 2150.4775
351.52481 -64.609573 2150.4504
304.84915 -63.583111 2150.6941
305.49411 -63.912197 2150.4866
306.5546 -63.557747 2150.479
307.61609 -63.557747 2150.479
308.32367 -63.557747 2150.479
309.38513 -63.557747 2150.479
311.50803 -63.557743 2150.479
312.56949 -63.557747 2150.479
313.98474 -63.557747 2150.479
350.44684 -63.553188 2150.4631
351.52203 -63.548691 2150.4529
304.89334 -62.547939 2150.646
306.20078 -62.4963 2150.479
307.61606 -62.4963 2150.479
308.3237 -62.496296 2150.479
309.38513 -62.496296 2150.479
310.44659 -62.496296 2150.479
311.50806 -62.4963 2150.479
312.56949 -62.496296 2150.479
313.63092 -62.496296 2150.479
315.37592 -62.476326 2150.4141
316.35727 -62.39716 2150.3059
350.4278 -62.496296 2150.479
304.9838 -61.588696 2150.7092
306.21054 -61.445671 2150.5225
307.61606 -61.434853 2150.479
308.32367 -61.434845 2150.479
309.38513 -61.434849 2150.479
310.44659 -61.434845 2150.479
311.50806 -61.434849 2150.479
312.56946 -61.434849 2150.479
313.63092 -61.434845 2150.479
315.39999 -61.434849 2150.479
316.46149 -61.434849 2150.479
350.42783 -61.434845 2150.479
307.62323 -60.392742 2150.5667
308.33383 -60.391407 2150.6401
309.39151 -60.381042 2150.5679
310.44659 -60.373402 2150.479
311.50803 -60.373398 2150.479
312.56949 -60.373402 2150.479
313.63092 -60.373398 2150.479
314.69235 -60.373398 2150.479
315.39999 -60.373398 2150.479
316.46146 -60.373398 2150.479
350.42749 -60.373417 2150.4792
307.80167 -59.89613 2151.0347
309.0426 -59.680668 2150.5322
310.44659 -59.665768 2150.479
311.50803 -59.665764 2150.479
312.56949 -59.665768 2150.479
313.63092 -59.665764 2150.479
314.69238 -59.665768 2150.479
315.39999 -59.665764 2150.479
316.46146 -59.665768 2150.479
318.22244 -59.654617 2150.4368
319.57501 -59.472191 2150.2058
350.42432 -59.666267 2150.4817
309.08728 -58.697632 2150.6204
310.44659 -58.958134 2150.479
311.62598 -58.722256 2150.479
312.56946 -58.604317 2150.479
313.63092 -58.604321 2150.479
314.69238 -58.604317 2150.479
315.40002 -58.604321 2150.479
316.46146 -58.604317 2150.479
317.52292 -58.250504 2150.479
318.46643 -58.486382 2150.479
319.65082 -58.616638 2150.5144
320.35342 -58.2505 2150.479
350.24725 -58.733677 2150.5227
309.30399 -58.018707 2151.1255
311.86185 -57.54287 2150.479
312.56949 -57.542873 2150.479
313.63092 -57.54287 2150.479
314.69235 -57.54287 2150.479
315.40002 -57.54287 2150.479
316.46146 -57.54287 2150.479
317.52292 -57.542873 2150.479
318.58435 -57.54287 2150.479
319.64578 -57.54287 2150.479
320.35342 -57.542866 2150.479
321.06107 -57.54287 2150.479
349.35712 -57.546349 2150.4851
350.07401 -57.54287 2150.479
311.86182 -56.481422 2150.479
312.56946 -56.481422 2150.479
313.63092 -56.481422 2150.479
314.69238 -56.481422 2150.479
315.40002 -56.481422 2150.479
316.46146 -56.481422 2150.479
317.52292 -56.481422 2150.479
318.58435 -56.481422 2150.479
319.64581 -56.481422 2150.479
320.35345 -56.481422 2150.479
321.06107 -56.481422 2150.479
322.47192 -56.478119 2150.4722
323.01562 -56.311119 2150.249
348.79175 -56.098606 2150.3801
349.33258 -56.492672 2150.5015
350.07401 -56.481422 2150.479
311.93008 -55.481155 2150.6045
312.56638 -55.415951 2150.4707
313.61957 -55.40657 2150.3896
314.69238 -55.419975 2150.479
315.40002 -55.419971 2150.479
316.46146 -55.419975 2150.479
317.52292 -55.419975 2150.479
318.58435 -55.419975 2150.479
319.64581 -55.419975 2150.479
320.35345 -55.419971 2150.479
321.41486 -55.419975 2150.479
322.49686 -55.435722 2150.5474
323.13129 -55.371078 2150.3296
348.70215 -55.41283 2150.4475
349.16736 -55.453209 2150.6072
312.66376 -54.852222 2150.7002
313.29813 -54.739445 2150.5449
314.69238 -54.358524 2150.479
315.40002 -54.358528 2150.479
316.46149 -54.358524 2150.479
317.52289 -54.358524 2150.479
318.58435 -54.358524 2150.479
319.64581 -54.358524 2150.479
320.35342 -54.358524 2150.479
321.41492 -54.358524 2150.479
322.47321 -54.355247 2150.4368
323.52203 -54.339127 2150.3186
324.57861 -54.298042 2150.1411
348.67328 -54.357445 2150.4685
349.37445 -54.357906 2150.4734
315.39999 -53.297077 2150.479
316.46146 -53.297073 2150.479
317.52292 -53.297077 2150.479
318.58435 -53.297073 2150.479
319.64581 -53.297077 2150.479
320.35345 -53.297077 2150.479
321.41489 -53.297073 2150.479
322.47632 -53.297077 2150.479
323.53778 -53.297077 2150.479
324.59921 -53.297077 2150.479
326.61844 -53.178017 2150.2908
327.21225 -52.979176 2150.0857
348.659 -53.297081 2150.479
349.36664 -53.297085 2150.479
315.46655 -52.661324 2150.6851
316.4548 -52.578857 2150.4395
317.52289 -52.589443 2150.479
318.58435 -52.589447 2150.479
319.64581 -52.589443 2150.479
320.35342 -52.589443 2150.479
321.41489 -52.589443 2150.479
322.47635 -52.589443 2150.479
323.53778 -52.589447 2150.479
324.59924 -52.589447 2150.479
325.30777 -52.591187 2150.491
326.39783 -52.626305 2150.5659
327.38626 -52.534737 2150.4038
348.65863 -52.589443 2150.479
349.36624 -52.589443 2150.479
316.19464 -51.688797 2150.6997
318.7023 -51.645935 2150.479
319.64581 -51.527996 2150.479
320.35342 -51.527996 2150.479
321.41489 -51.527996 2150.4792
322.47632 -51.527996 2150.479
323.53778 -51.527996 2150.479
324.59924 -51.528 2150.479
325.30688 -51.527996 2150.479
326.37421 -51.531605 2150.5254
327.41644 -51.509705 2150.3484
330.05786 -50.928589 2150.1489
348.64966 -51.528606 2150.4851
349.35141 -51.528942 2150.4897
318.96564 -50.49427 2150.6521
319.64569 -50.466423 2150.4783
320.34558 -50.4576 2150.4019
321.41492 -50.466545 2150.4792
322.47635 -50.466549 2150.4792
323.53778 -50.466545 2150.479
324.59924 -50.466549 2150.479
325.30685 -50.466549 2150.479
326.36832 -50.466545 2150.479
327.42975 -50.466545 2150.479
328.13739 -50.466545 2150.479
330.18738 -50.384369 2150.3599
348.63013 -50.4711 2150.5034
349.34814 -50.468639 2150.4934
319.12531 -49.83152 2150.7271
319.68118 -49.436497 2150.563
320.31277 -49.370449 2150.3281
321.41489 -49.405098 2150.479
322.47632 -49.405098 2150.479
323.53778 -49.405098 2150.479
324.59924 -49.405098 2150.479
325.30685 -49.405098 2150.479
326.36832 -49.405098 2150.479
327.42975 -49.405098 2150.479
328.37329 -49.287163 2150.479
329.543 -49.392487 2150.4387
330.22565 -49.368092 2150.3782
331.44739 -48.891659 2150.3113
347.95111 -49.405098 2150.4792
348.65872 -49.405098 2150.479
349.3349 -49.409721 2150.5046
319.71286 -48.406345 2150.5869
322.47632 -48.343651 2150.479
323.53778 -48.343651 2150.479
324.59924 -48.343651 2150.479
325.30685 -48.343651 2150.479
326.36832 -48.343651 2150.479
327.42978 -48.343651 2150.479
328.49121 -48.343651 2150.479
329.54199 -48.332211 2150.3855
330.58939 -48.309891 2150.2935
331.59946 -48.248062 2150.2329
347.95108 -48.343651 2150.479
348.67953 -48.340408 2150.4619
322.48273 -47.64938 2150.625
323.53778 -47.636017 2150.479
324.59921 -47.636017 2150.479
325.30685 -47.636017 2150.479
326.36829 -47.636017 2150.479
327.42975 -47.636013 2150.479
328.49121 -47.636017 2150.479
329.55038 -47.632996 2150.436
330.61087 -47.629097 2150.406
331.69672 -47.656422 2150.532
347.95108 -47.636017 2150.479
348.66873 -47.634651 2150.4717
320.14545 -47.502914 2151.2988
322.50565 -46.9702 2150.6545
323.48663 -46.543987 2150.3086
324.59924 -46.928387 2150.479
325.30685 -46.57457 2150.479
326.36832 -46.57457 2150.479
327.42975 -46.57457 2150.479
328.49121 -46.57457 2150.479
329.55267 -46.57457 2150.479
330.61411 -46.57457 2150.479
331.68631 -46.578476 2150.5378
332.35876 -46.199806 2150.3445
332.95218 -46.452789 2150.1821
347.71811 -46.456581 2150.4763
348.65787 -46.574669 2150.4797
322.59052 -45.55719 2150.552
323.16782 -45.499836 2150.4539
326.38254 -45.529388 2150.5771
327.42578 -45.510941 2150.4485
328.49121 -45.513123 2150.479
329.55264 -45.513119 2150.479
330.61411 -45.513123 2150.479
331.67557 -45.513119 2150.479
332.37827 -45.508915 2150.4148
333.43402 -45.498737 2150.4294
334.46301 -45.456703 2150.3735
335.13895 -45.406788 2150.2456
347.58664 -45.515385 2150.4905
348.65811 -45.513199 2150.4795
323.26837 -45.00729 2150.7551
326.60654 -44.609325 2150.6621
327.37711 -44.433163 2150.3445
328.49121 -44.451672 2150.479
329.55267 -44.451672 2150.479
330.61411 -44.451668 2150.479
331.67557 -44.451675 2150.479
332.38318 -44.451672 2150.479
333.44464 -44.451668 2150.479
334.5061 -44.451672 2150.479
335.21371 -44.451672 2150.479
337.17789 -43.968582 2150.2798
347.56696 -44.461311 2150.5093
348.61249 -44.818604 2150.5203
326.89328 -43.480247 2150.699
327.40414 -43.37635 2150.4397
328.49121 -43.390221 2150.479
329.55267 -43.390224 2150.479
330.61407 -43.390221 2150.479
331.67554 -43.390224 2150.479
332.38318 -43.390221 2150.479
333.44464 -43.390224 2150.479
334.50607 -43.390221 2150.479
335.21371 -43.390224 2150.479
336.67459 -43.419514 2150.5679
337.21219 -43.238171 2150.2048
346.62933 -43.359791 2150.3977
347.61243 -43.385056 2150.4648
327.43646 -42.687447 2150.4905
328.845 -42.68259 2150.479
329.55264 -42.68259 2150.479
330.61414 -42.682594 2150.479
331.67554 -42.682587 2150.479
332.38318 -42.68259 2150.479
333.44464 -42.68259 2150.479
334.50607 -42.68259 2150.479
335.21371 -42.68259 2150.479
336.67493 -42.716763 2150.6206
337.28491 -42.621937 2150.3433
346.53195 -42.683487 2150.4822
347.27731 -42.671665 2150.446
327.52377 -42.093674 2150.6685
329.55267 -41.62114 2150.479
330.61411 -41.621143 2150.479
331.67554 -41.62114 2150.479
332.38318 -41.621143 2150.479
333.44464 -41.62114 2150.479
334.5061 -41.621143 2150.479
335.5675 -41.621143 2150.479
336.62494 -41.617496 2150.4265
337.33139 -41.613865 2150.4421
338.27795 -41.485577 2150.3005
339.4595 -41.621143 2150.479
340.85629 -41.572548 2150.4211
341.52435 -41.212425 2150.3777
346.51413 -41.625298 2150.4963
347.43619 -41.51136 2150.5142
330.26852 -40.568569 2150.5093
331.67557 -40.559692 2150.479
333.44464 -40.559692 2150.479
334.5061 -40.559696 2150.479
335.56754 -40.559696 2150.479
336.62897 -40.559692 2150.479
337.33658 -40.559692 2150.479
338.39807 -40.559692 2150.479
339.4595 -40.559696 2150.479
340.90143 -40.605007 2150.6321
341.59491 -40.576355 2150.5239
342.27612 -40.533909 2150.4319
345.83002 -40.558872 2150.4771
346.50882 -40.56881 2150.5237
347.23352 -40.5616 2150.4885
330.31924 -39.616047 2150.6265
333.44464 -39.498245 2150.479
334.5061 -39.498245 2150.479
335.5675 -39.498245 2150.479
336.629 -39.498245 2150.479
337.33661 -39.498245 2150.479
338.39804 -39.498241 2150.479
340.87476 -39.498245 2150.479
341.5824 -39.498245 2150.479
342.29004 -39.498245 2150.479
343.66171 -39.056545 2150.116
344.40442 -39.016788 2149.9358
345.73447 -39.205723 2150.6309
346.54617 -39.49168 2150.4473
347.12091 -39.535454 2150.6023
333.46878 -38.46106 2150.5706
334.48395 -38.418266 2150.3474
335.92136 -38.436798 2150.479
336.62897 -38.436794 2150.479
337.33661 -38.436794 2150.479
338.39807 -38.436798 2150.479
340.87479 -38.436798 2150.479
341.5824 -38.436798 2150.479
342.29004 -38.436794 2150.479
343.69034 -38.417194 2150.3601
344.40729 -38.390648 2150.1475
345.79974 -38.454121 2150.5679
346.49554 -38.455952 2150.626
333.57858 -37.819954 2150.6912
334.48679 -37.35849 2150.4316
335.92136 -37.375351 2150.479
336.62897 -37.375347 2150.479
337.33661 -37.375347 2150.479
338.39807 -37.375347 2150.479
340.87476 -37.375351 2150.479
341.5824 -37.375347 2150.479
342.29004 -37.375347 2150.479
343.70218 -37.370892 2150.4001
344.41058 -37.366936 2150.3535
345.48306 -37.366848 2150.3572
346.42664 -37.421062 2150.6677
334.61209 -36.444832 2150.646
335.92136 -36.3139 2150.479
336.629 -36.3139 2150.479
337.33661 -36.3139 2150.479
338.39807 -36.3139 2150.479
340.87479 -36.3139 2150.479
341.5824 -36.3139 2150.479
342.64386 -36.313904 2150.479
343.70532 -36.3139 2150.479
344.41293 -36.3139 2150.479
345.47437 -36.3139 2150.479
335.96783 -35.632385 2150.6389
337.33661 -35.606266 2150.479
338.75186 -35.60627 2150.479
340.87476 -35.60627 2150.479
341.5824 -35.606266 2150.479
342.64386 -35.606266 2150.479
343.70532 -35.60627 2150.479
344.41293 -35.606266 2150.479
345.47437 -35.606266 2150.479
337.33661 -34.544819 2150.479
338.75189 -34.544815 2150.479
340.87479 -34.544823 2150.479
341.5824 -34.544819 2150.479
342.64386 -34.544819 2150.479
343.70532 -34.544819 2150.479
344.41293 -34.544815 2150.479
345.47437 -34.544819 2150.479
337.37491 -33.493996 2150.5198
340.87479 -33.483368 2150.479
341.5824 -33.483368 2150.479
342.64386 -33.483368 2150.479
343.70529 -33.483372 2150.479
344.41293 -33.483372 2150.479
345.47437 -33.483368 2150.479
337.44244 -32.429207 2150.5186
340.87479 -32.775738 2150.479
341.5824 -32.421921 2150.479
342.99768 -32.421921 2150.479
343.70532 -32.421921 2150.479
344.41296 -32.421921 2150.479
345.42798 -32.419559 2150.6006
337.51901 -31.564077 2150.6702
341.59927 -31.372801 2150.541
342.99768 -31.360474 2150.479
343.70529 -31.360474 2150.479
344.41293 -31.360474 2150.479
345.41507 -31.356836 2150.5784
341.64249 -30.717367 2150.6104
342.99768 -30.652842 2150.479
344.41293 -30.652842 2150.479
345.4191 -30.65427 2150.5791
341.76483 -30.144007 2150.8093
343.01151 -29.954769 2150.5564
344.4209 -29.621487 2150.6736
345.34573 -29.653931 2150.719
344.37549 -28.524761 2150.4592
345.013 -28.536901 2150.4822
344.84464 -27.536674 2150.5732
344.68179 -26.679678 2150.7517
344.37396 -25.717037 2150.491
375.97397 -200.00316 2152.9138
376.6824 -199.29472 2152.9138
375.97397 -198.58629 2152.9138
376.6824 -198.5863 2152.9138
375.97852 -197.52271 2152.9097
376.67612 -197.52383 2152.918
375.97394 -196.46098 2152.9138
376.64938 -196.46965 2152.9407
374.66165 -195.0056 2152.8159
