ply
format ascii 1.0
comment PCL generated
element vertex 1551
property float x
property float y
property float z
element camera 0
property float view_px
property float view_py
property float view_pz
property float x_axisx
property float x_axisy
property float x_axisz
property float y_axisx
property float y_axisy
property float y_axisz
property float z_axisx
property float z_axisy
property float z_axisz
property float focal
property float scalex
property float scaley
property float centerx
property float centery
property int viewportx
property int viewporty
property float k1
property float k2
end_header
317.71997 -70.385139 2091.2942
318.42438 -70.401932 2091.3364
319.46106 -70.389633 2091.3269
320.44354 -70.530167 2091.5171
321.11942 -70.51844 2091.4822
317.81906 -69.833855 2091.5203
318.44284 -69.515167 2091.4944
319.43979 -69.514389 2091.4922
373.53442 -55.33773 2091.3918
373.99887 -55.064697 2091.2205
374.25424 -54.817184 2091.5239
307.41614 -50.455303 2091.3508
nan nan nan
307.41614 -48.390774 2091.3508
330.47003 -25.680975 2091.3508
330.42282 -25.213886 2091.5259
347.39096 22.477755 2091.2874
348.36261 22.491327 2091.3508
349.39487 22.491327 2091.3508
350.42712 22.491327 2091.3508
347.46143 23.161869 2091.2048
348.01053 23.534546 2091.3765
350.42712 23.179502 2091.3508
351.3728 23.921021 2091.49
348.71942 24.534279 2091.2952
350.77121 25.24403 2091.3508
351.45941 25.588116 2091.3508
352.14758 26.620382 2091.3508
352.14755 27.308556 2091.3508
319.39911 -89.115227 2093.6262
318.84427 -88.379364 2093.6804
318.75269 -87.37532 2093.6455
344.60184 -87.155807 2093.3926
345.64685 -86.954948 2093.7739
346.3334 -86.947144 2093.7432
347.29892 -86.885979 2093.7874
318.80524 -86.327919 2093.6628
344.96921 -86.322472 2093.6143
345.63959 -86.369682 2093.5869
346.42664 -86.373672 2093.5103
347.39142 -86.342186 2093.6262
344.61914 -85.639275 2093.6321
345.65945 -85.632271 2093.626
346.30048 -85.687355 2093.7207
346.94797 -85.790298 2093.8376
341.59256 -84.108124 2093.4707
342.88864 -84.271072 2093.6562
343.55649 -84.645241 2093.7009
344.44421 -84.785995 2093.7439
340.82697 -83.574699 2093.6477
341.5033 -83.595779 2093.6729
342.50131 -83.648315 2093.7341
343.56158 -83.611168 2093.687
344.17795 -83.721344 2093.821
340.49338 -82.534462 2093.6379
341.51761 -82.879387 2093.6409
342.17068 -82.951134 2093.7166
318.08862 -81.512863 2093.6536
340.44699 -81.5448 2093.6885
318.08862 -80.479462 2093.6536
336.46524 -79.952591 2093.4426
337.39963 -80.437767 2093.6145
338.04227 -80.528183 2093.698
339.3624 -80.226524 2093.7756
318.08859 -79.446053 2093.6536
336.41193 -79.348572 2093.5671
337.24509 -79.65934 2093.8428
338.0661 -79.44944 2093.657
318.05234 -78.761169 2093.6431
334.03964 -77.904091 2093.5002
334.64127 -78.38903 2093.6311
335.31836 -78.404007 2093.646
336.40442 -78.606903 2093.7407
333.65231 -77.296547 2093.5879
335.19284 -77.544678 2093.8354
317.44543 -76.340134 2093.6663
330.56235 -75.87793 2093.5271
331.62885 -76.245789 2093.668
332.57422 -76.317131 2093.6321
333.44598 -76.87925 2093.8093
317.39969 -75.312454 2093.6536
329.6839 -75.045372 2093.4031
330.4418 -75.394173 2093.7161
331.06335 -75.546967 2093.8215
332.37369 -75.638664 2093.9612
317.39969 -74.62352 2093.6536
329.45428 -74.625473 2093.6553
317.39966 -73.590118 2093.6536
326.43637 -73.136459 2093.5161
327.49393 -73.487869 2093.6716
328.45123 -73.555588 2093.6074
329.41068 -73.984016 2093.7048
326.47012 -72.371208 2093.4951
327.01169 -72.606323 2093.6946
328.3114 -72.703499 2093.8213
323.66281 -71.425476 2093.5278
324.72971 -71.435684 2093.7031
325.67996 -71.5047 2093.6367
326.34518 -71.882637 2093.6675
326.92819 -72.036308 2093.8152
322.59836 -70.451111 2093.6028
323.62015 -70.462234 2093.6199
324.32138 -70.44619 2093.6028
325.51889 -70.69059 2093.8623
317.30072 -69.308868 2093.8811
317.92984 -68.807884 2093.3328
320.98718 -68.74942 2093.3323
321.61917 -68.974167 2093.5254
322.58035 -69.439468 2093.6365
324.22589 -69.900284 2093.7615
318.45514 -68.369957 2093.5576
319.4754 -68.394623 2093.5923
320.53476 -68.350151 2093.5535
321.55103 -68.39872 2093.6304
322.69983 -68.744209 2093.9624
317.39966 -67.389725 2093.6536
318.44885 -67.377022 2093.5759
319.47238 -67.380493 2093.6372
320.12595 -67.452225 2093.7292
321.39951 -67.931709 2093.8601
317.38235 -66.322105 2093.5483
318.42126 -66.366585 2093.6702
317.40207 -65.721008 2093.7166
318.29605 -65.807571 2093.8279
317.48691 -65.325241 2094.0354
307.75461 -63.600586 2093.6536
307.75464 -62.567192 2093.6536
307.75461 -61.533791 2093.6536
307.75467 -60.500389 2093.6533
307.75458 -59.466988 2093.6536
307.0657 -55.333389 2093.6536
307.06567 -54.644451 2093.6536
307.06567 -53.611053 2093.6536
373.89224 -53.266586 2093.6536
374.58118 -53.26659 2093.6536
307.06567 -52.577656 2093.6536
373.89224 -52.577652 2093.6536
374.58118 -52.577656 2093.6536
306.91916 -51.561592 2093.6089
374.58115 -51.888721 2093.6536
306.37674 -47.066185 2093.6533
306.37677 -46.377254 2093.6536
306.37677 -45.68832 2093.6536
306.37674 -44.654922 2093.6536
306.37674 -43.621521 2093.6536
305.68781 -40.176853 2093.6536
305.68781 -38.454521 2093.6536
305.68781 -37.42112 2093.6536
305.68781 -36.387718 2093.6536
305.68781 -35.354321 2093.6533
330.81122 -23.410643 2093.4031
331.17599 -23.644135 2093.6553
330.48941 -22.609051 2093.6536
331.17838 -22.953516 2093.6536
352.53519 22.51622 2093.6538
353.5687 22.51609 2093.6533
352.72128 22.901474 2093.3667
354.60208 23.893957 2093.6536
310.8526 -98.155334 2095.9612
319.12894 -90.568718 2095.9612
318.44965 -89.525047 2095.9673
319.12238 -89.884773 2095.9573
346.89572 -87.83593 2095.7791
347.36694 -87.794914 2096.002
348.49945 -87.577637 2096.1443
349.4754 -87.465088 2095.9612
350.50259 -87.424118 2096.042
351.43491 -87.356186 2096.1729
348.84763 -86.372604 2095.6941
349.4754 -86.430557 2095.9612
350.52869 -86.398804 2095.8967
351.47644 -86.466537 2096.0562
347.48889 -84.993965 2095.8635
348.46225 -85.384239 2095.8892
349.46024 -85.759796 2096.0383
350.44366 -85.830795 2096.1067
346.90469 -84.122223 2095.748
347.41302 -84.353294 2095.9543
347.93753 -84.588356 2096.1638
317.74954 -83.671791 2095.9612
345.384 -83.607651 2095.8989
346.72699 -83.659088 2095.9495
347.31912 -83.8004 2096.084
317.74954 -82.637253 2095.9612
343.75403 -82.477356 2095.9209
344.69684 -82.556488 2095.8928
345.33127 -82.989311 2095.9683
345.88226 -83.17852 2096.1345
341.94556 -81.513588 2095.8628
342.67566 -81.445969 2095.8091
343.59207 -81.637154 2095.9915
344.61389 -81.661583 2096.0186
340.54291 -80.537964 2095.9314
341.51938 -80.59668 2096.0002
342.58591 -80.902893 2095.9507
343.51483 -81.058319 2096.1096
317.05984 -79.53363 2095.9612
340.56387 -79.467194 2095.9023
341.04694 -79.713799 2096.1306
317.05984 -78.499084 2095.9612
337.83844 -78.345627 2095.8208
339.05634 -78.268608 2096.0537
340.35181 -79.081848 2096.1702
317.05984 -77.464554 2095.9612
336.57565 -77.15934 2095.7329
337.3429 -77.560471 2096.0271
333.70389 -75.964066 2095.8438
334.72998 -75.953201 2095.8511
335.72366 -76.373672 2095.9189
336.26019 -76.590508 2096.084
336.87399 -77.053238 2096.1729
317.05981 -75.395462 2095.9612
333.62463 -75.378944 2095.9463
334.51788 -75.562973 2096.1208
330.93564 -73.889381 2095.8091
331.55609 -73.996895 2095.9409
332.66696 -74.236404 2095.8503
333.45407 -74.563148 2096.1499
334.06879 -75.020905 2096.2483
330.52472 -73.303772 2095.9343
331.56891 -73.291718 2095.9165
332.54007 -73.376633 2096.0161
308.09384 -72.636703 2095.9612
329.52274 -72.574181 2095.9016
330.46368 -72.69471 2096.0259
331.49106 -72.716675 2096.05
308.09378 -71.602158 2095.9614
316.37015 -71.602158 2095.9612
326.84726 -71.074005 2095.7812
327.46378 -71.166977 2095.884
328.5383 -71.461693 2095.8481
329.38116 -71.741478 2096.0845
330.02628 -72.147224 2096.1355
308.09387 -70.567619 2095.9612
316.37015 -70.567627 2095.9612
326.72659 -70.552666 2095.9473
327.34732 -70.632423 2096.0193
328.20526 -70.922043 2096.2751
316.12961 -69.996758 2095.7505
324.72366 -69.07634 2095.863
325.36096 -69.499039 2095.9302
326.30487 -69.613792 2096.0413
327.16699 -70.184212 2096.261
322.85144 -68.104332 2095.5557
323.97278 -68.469833 2095.9375
324.63834 -68.509895 2095.97
325.24338 -68.659317 2096.1023
325.9548 -68.585045 2096.0588
321.58694 -67.050117 2095.9058
322.56015 -67.492233 2095.9824
323.37143 -67.767097 2096.1265
324.41949 -68.160004 2096.2642
307.40417 -66.429466 2095.9612
319.94473 -66.250893 2095.7764
320.69559 -66.171432 2095.7454
321.49597 -66.49073 2096.012
322.38239 -66.765152 2096.2578
307.40411 -65.394928 2095.9614
315.67679 -65.082008 2095.9946
316.3775 -64.860306 2095.7532
318.49188 -64.941879 2095.8647
319.57233 -65.302162 2095.9822
320.5105 -65.391968 2095.958
321.44556 -65.86425 2096.103
307.40414 -64.36039 2095.9612
316.36868 -64.398834 2096.0037
317.46323 -64.145004 2095.7976
318.45312 -64.332253 2095.937
319.24893 -64.677574 2096.2437
307.40414 -63.670692 2095.9612
316.36966 -63.715645 2095.9983
317.38089 -63.763157 2096.0364
318.29147 -64.017563 2096.2612
315.71951 -63.115692 2096.1047
316.37454 -63.11393 2096.105
317.36984 -63.171604 2096.1567
306.71445 -59.532539 2095.9612
306.77258 -58.490349 2095.9802
306.71445 -57.463459 2095.9614
374.30432 -51.256218 2095.9612
306.02475 -50.566528 2095.9612
374.30435 -50.566528 2095.9612
306.02475 -49.53199 2095.9612
374.30435 -49.876835 2095.9612
306.02478 -48.497452 2095.9612
305.33505 -39.531445 2095.9612
nan nan nan
nan nan nan
304.64539 -29.530899 2095.9612
330.09308 -19.590431 2096.0193
309.8147 -99.644554 2098.2739
309.8147 -98.608871 2098.2739
309.81473 -97.573189 2098.2739
318.83368 -91.31456 2098.3022
318.08432 -90.67572 2098.2681
351.58002 -88.59462 2098.2842
352.57349 -88.581665 2098.4089
353.31332 -88.59729 2098.2739
354.349 -88.59729 2098.2739
317.4097 -87.216377 2098.2739
352.6795 -87.90641 2098.1523
353.32428 -87.559555 2098.2224
354.349 -87.561607 2098.2739
355.28421 -87.531418 2098.4636
317.4097 -86.525925 2098.2739
352.70874 -86.483658 2097.9883
353.34213 -86.511284 2098.1953
354.34756 -86.527397 2098.2781
355.27246 -86.619499 2098.4585
317.2861 -85.505302 2098.2344
351.73798 -85.339119 2098.2275
352.55579 -85.563652 2098.365
353.181 -85.93824 2098.4695
354.24484 -85.982918 2098.5112
350.73618 -84.213112 2098.0525
351.50928 -84.542999 2098.3494
308.43381 -83.073654 2098.2739
347.88007 -82.938889 2098.1472
348.50909 -83.371323 2098.2314
349.49487 -83.451775 2098.3037
350.54718 -83.771317 2098.2803
351.13382 -83.947937 2098.4465
308.43381 -82.383209 2098.2742
347.51474 -82.289932 2098.1963
348.28885 -82.659958 2098.5042
308.43381 -81.347519 2098.2739
316.71927 -81.002289 2098.2739
345.39862 -80.970314 2098.24
346.45114 -81.291321 2098.2273
347.27048 -81.532814 2098.343
308.43381 -80.311836 2098.2739
316.71927 -80.311844 2098.2739
343.74301 -80.16304 2098.1199
344.48969 -80.112648 2098.094
345.26489 -80.453056 2098.3931
343.7753 -79.445969 2098.1294
344.29346 -79.678696 2098.3203
345.01508 -79.640694 2098.2905
340.95584 -78.163185 2098.1819
341.67499 -78.11087 2098.1489
342.61047 -78.586807 2098.2749
343.63446 -78.94796 2098.2891
344.08188 -78.933693 2098.6309
340.71152 -77.295052 2098.051
341.43481 -77.736961 2098.4238
307.74335 -76.514343 2098.2739
337.4921 -76.050949 2098.1333
338.13113 -76.500557 2098.26
340.44067 -76.606529 2098.249
341.384 -77.085503 2098.5171
nan nan nan
336.77954 -75.434906 2098.2212
337.41211 -75.512383 2098.3218
338.08392 -75.549591 2098.4167
340.06635 -75.681419 2098.5144
307.74335 -74.442986 2098.2739
335.42932 -74.358742 2098.1677
336.45322 -74.376122 2098.1575
337.46146 -74.394005 2098.1748
316.02881 -73.407303 2098.2739
334.04636 -73.33287 2098.1868
334.70953 -73.348854 2098.2161
335.30881 -73.483528 2098.3418
336.02209 -73.454765 2098.3201
337.2149 -73.676872 2098.6104
316.02881 -72.371628 2098.2739
332.65057 -72.30751 2098.1992
333.5777 -72.42215 2098.2107
334.66263 -72.727699 2098.2842
331.57294 -71.320084 2098.2566
332.63013 -71.295189 2098.2349
333.27094 -71.360443 2098.2988
307.05292 -70.645493 2098.2739
329.90231 -70.553833 2098.1638
330.60062 -70.517982 2098.1511
331.91138 -70.641624 2098.2705
332.56509 -70.711502 2098.3367
333.07416 -70.901154 2098.5796
307.05292 -69.60981 2098.2739
328.51263 -69.535698 2098.1924
329.57404 -69.538177 2098.3167
330.47397 -69.700165 2098.3555
307.05289 -68.574127 2098.2739
327.43866 -68.547882 2098.2483
328.45258 -68.580147 2098.28
329.14206 -68.5812 2098.2812
307.05292 -67.883675 2098.2739
315.33832 -67.538445 2098.2739
325.75223 -67.458046 2098.2021
326.38025 -67.546364 2098.2815
327.37277 -67.955978 2098.3359
328.95129 -68.153488 2098.583
324.33841 -66.470612 2098.2412
325.3447 -66.509506 2098.2803
326.38678 -66.501137 2098.2722
321.65393 -64.93869 2098.0842
322.71893 -65.327873 2098.2488
323.66214 -65.411133 2098.2183
324.3493 -65.756699 2098.2244
324.92963 -65.568291 2098.3765
321.5325 -64.4636 2098.3069
322.52661 -64.525566 2098.3679
323.55759 -64.526878 2098.3723
318.86209 -62.889912 2098.1191
319.48782 -63.040382 2098.2632
320.53479 -63.37109 2098.2502
321.56152 -63.726765 2098.2578
322.13339 -63.569096 2098.4646
315.33044 -62.341969 2098.2566
316.08023 -62.224701 2098.1343
317.42523 -62.299358 2098.2212
318.51886 -62.192093 2098.1333
319.39517 -62.508427 2098.4111
315.44498 -61.812893 2098.47
316.03207 -61.62244 2098.2246
317.41974 -61.643768 2098.2466
318.38577 -61.801746 2098.3938
319.41241 -61.789452 2098.3975
306.36246 -60.288677 2098.2739
315.42682 -60.624943 2098.3936
316.37589 -60.631271 2098.2659
317.39307 -61.009171 2098.322
318.05865 -61.083797 2098.3857
315.40689 -59.659595 2098.3867
315.67365 -59.235092 2098.7725
305.672 -56.145962 2098.2739
305.672 -55.455505 2098.2739
305.672 -54.419823 2098.2739
305.672 -53.38414 2098.2739
305.672 -52.348461 2098.2739
305.672 -51.312782 2098.2739
374.71738 -48.550964 2098.2739
303.60062 -24.38508 2098.2739
303.60062 -23.3494 2098.2739
330.68378 -18.057867 2098.1597
331.16196 -18.557577 2098.3157
330.42596 -17.557619 2098.3457
309.46573 -100.44584 2100.5918
309.46573 -99.409019 2100.5918
309.46576 -98.372192 2100.592
308.77451 -92.496857 2100.5918
317.90482 -92.090111 2100.6565
318.42584 -92.170921 2100.5784
308.77451 -91.46003 2100.5918
308.77454 -90.423203 2100.5918
317.17102 -89.366455 2100.6213
316.96173 -88.367188 2100.5586
356.51364 -88.694366 2100.5168
357.60986 -88.429291 2100.6887
358.5174 -88.290909 2100.7083
359.54932 -88.280754 2100.6936
308.08331 -87.312721 2100.5918
357.50528 -87.312729 2100.592
358.564 -87.297363 2100.5215
359.5123 -87.351021 2100.6772
308.08328 -86.621513 2100.592
356.51956 -86.571777 2100.4849
357.50531 -86.621513 2100.592
358.50702 -86.653908 2100.655
308.08331 -85.93029 2100.5918
354.48938 -85.096222 2100.4495
355.54996 -85.465729 2100.5881
356.3996 -85.687134 2100.696
357.46552 -85.979607 2100.6804
358.40582 -86.093224 2100.813
316.3779 -84.547859 2100.5918
353.7038 -84.547531 2100.5918
354.4809 -84.43782 2100.4858
355.27374 -84.756607 2100.7869
316.3779 -83.51104 2100.5918
351.68921 -83.075127 2100.5
352.33923 -83.487434 2100.5664
353.49316 -83.367599 2100.552
354.36203 -83.562805 2100.6443
355.02075 -83.967728 2100.7065
316.37787 -82.474213 2100.592
350.93518 -82.479904 2100.5974
351.62405 -82.482323 2100.5994
352.1893 -82.667 2100.7717
348.56693 -81.034225 2100.5215
349.55176 -81.44397 2100.6008
350.60953 -81.416351 2100.5667
351.53439 -81.564232 2100.7202
307.39209 -80.400566 2100.5918
347.50885 -80.362213 2100.5449
348.51175 -80.409569 2100.6016
349.54114 -80.420021 2100.6118
307.39209 -79.363739 2100.5918
345.52679 -78.83445 2100.4104
346.54959 -79.265579 2100.6106
347.51443 -79.32238 2100.5322
348.366 -79.524658 2100.6426
307.39209 -78.326912 2100.5918
344.16263 -78.14312 2100.4102
345.43628 -78.284363 2100.5581
346.44376 -78.330399 2100.5952
347.38785 -78.47332 2100.7532
307.39209 -77.635696 2100.5918
343.37991 -77.572838 2100.5278
344.36621 -77.642601 2100.5977
345.19049 -77.973289 2100.8848
315.68671 -76.253258 2100.5918
341.46951 -76.01532 2100.3418
342.63528 -76.609337 2100.6042
343.31674 -76.620651 2100.615
344.01736 -77.014702 2100.8667
315.68668 -75.562042 2100.592
341.59286 -75.579803 2100.6086
342.50839 -75.743996 2100.7568
343.25247 -75.664116 2100.7205
315.68671 -74.525223 2100.5918
340.04825 -74.242378 2100.4099
340.56631 -74.5308 2100.5959
341.26984 -74.941368 2100.8418
337.30518 -73.159744 2100.3
339.80917 -73.605492 2100.6921
335.74576 -72.084106 2100.5696
336.41577 -72.465584 2100.6033
337.43192 -72.504532 2100.6326
338.48129 -72.822441 2100.6091
334.46799 -71.276024 2100.4355
335.44659 -71.341652 2100.5103
336.41275 -71.428032 2100.6072
337.08301 -71.46656 2100.6482
314.99548 -70.377922 2100.5918
333.03189 -69.936516 2100.5024
333.67554 -70.012482 2100.5725
334.33374 -70.397163 2100.6116
335.37921 -70.731888 2100.6025
314.99548 -69.341095 2100.5918
331.6315 -69.251305 2100.4988
332.61627 -69.349701 2100.6001
333.57599 -69.443214 2100.688
334.12817 -69.644234 2100.9158
314.99545 -68.649887 2100.592
330.60641 -68.577591 2100.5146
331.61041 -68.608589 2100.5503
332.63382 -68.622833 2100.5645
333.60614 -68.717339 2100.6758
328.88171 -67.165649 2100.4956
329.5383 -67.236458 2100.5608
330.44824 -67.70813 2100.5742
331.56616 -67.985077 2100.6201
332.52377 -68.119156 2100.7583
328.62427 -66.360832 2100.3999
329.43066 -66.67981 2100.6775
329.98529 -66.915031 2100.8813
326.45056 -65.476997 2100.5322
327.42584 -65.557343 2100.615
328.48715 -65.864212 2100.5708
329.45584 -65.959312 2100.668
324.77002 -64.361061 2100.457
325.49356 -64.327499 2100.4419
326.32217 -64.622124 2100.6938
323.65906 -63.428047 2100.5613
324.60956 -63.54847 2100.6582
325.32684 -63.519894 2100.6423
325.99353 -63.913807 2100.6936
321.62653 -62.324711 2100.4873
322.63867 -62.377243 2100.5442
323.15076 -62.599148 2100.7515
314.21591 -61.394814 2100.5583
319.58347 -60.917511 2100.4495
320.50989 -61.068783 2100.6162
321.58224 -61.365086 2100.5593
322.4118 -61.98616 2100.8159
314.3808 -60.381256 2100.6289
318.49301 -60.274906 2100.5117
319.47522 -60.373295 2100.6104
320.41769 -60.512112 2100.749
321.15369 -60.449951 2100.6953
314.55103 -59.598568 2100.5344
317.75647 -59.670319 2100.5986
318.49316 -59.59798 2100.5273
319.49567 -59.652222 2100.5796
314.81055 -58.703434 2100.7266
315.72281 -58.225208 2100.4097
316.40469 -58.583344 2100.4653
317.4176 -58.62162 2100.5781
318.41263 -58.687347 2100.6562
319.08151 -59.085106 2100.709
314.90707 -57.646305 2100.8655
315.63232 -57.665592 2100.7124
316.21146 -57.817429 2100.8997
305.31845 -56.553589 2100.5918
314.67993 -56.573589 2100.6345
315.59933 -56.964767 2100.7253
305.31842 -55.516762 2100.5918
314.57358 -55.976562 2101.061
305.31842 -54.479939 2100.5918
373.74887 -45.148518 2100.5918
374.44012 -45.494125 2100.5918
373.77917 -44.438782 2100.5713
374.09579 -44.667618 2100.8284
303.24478 -27.176884 2100.5918
303.24478 -26.485668 2100.5918
303.24481 -25.448845 2100.592
303.11871 -21.619701 2100.5393
303.24478 -20.955935 2100.5918
330.8497 -16.128775 2100.6045
330.64032 -15.402298 2100.554
330.52121 -14.740617 2100.603
309.116 -101.24891 2102.915
308.42401 -96.405045 2102.915
nan nan nan
308.42401 -94.329094 2102.915
308.42401 -93.637115 2102.915
316.80481 -92.234207 2102.9448
317.39975 -92.951332 2102.9075
307.7829 -91.553375 2102.9336
316.64163 -91.582367 2102.8816
307.73203 -90.523193 2102.915
316.68805 -90.532669 2102.9036
307.73206 -89.485229 2102.915
358.94107 -89.495209 2102.9092
359.63327 -89.490479 2102.9102
360.30414 -89.457977 2102.95
361.3606 -89.485229 2102.915
362.39853 -89.485229 2102.915
363.43652 -89.485229 2102.915
307.73206 -88.44725 2102.915
361.70654 -88.447258 2102.915
362.39853 -88.447266 2102.915
363.43652 -88.447258 2102.915
364.45468 -88.800652 2102.9443
364.90637 -88.835388 2103.2559
316.0358 -87.409279 2102.915
361.7262 -87.386589 2102.782
362.40732 -87.396561 2102.8843
363.39554 -87.483818 2103.0342
316.03583 -86.371307 2102.9148
359.72589 -86.259293 2102.7988
360.30591 -86.388023 2102.9326
361.37216 -86.35685 2102.8972
362.31577 -86.829048 2103.0945
316.0358 -85.333344 2102.915
358.95197 -85.314896 2102.8992
359.56897 -85.405251 2102.9783
316.0358 -84.641365 2102.9148
357.79068 -84.287003 2102.6277
358.64066 -84.577591 2102.8643
359.38672 -84.982086 2103.2065
316.0358 -83.949379 2102.915
355.56912 -83.13427 2102.8052
356.50623 -83.618851 2102.9282
357.54385 -83.62104 2102.929
358.49023 -84.075645 2103.0457
354.45752 -82.540947 2102.895
355.43097 -82.633018 2102.9692
355.99747 -82.863457 2103.1636
307.04007 -81.181458 2102.915
352.75983 -81.461327 2102.8491
353.38556 -81.202042 2102.9324
354.42712 -81.546471 2102.9312
351.36581 -80.439438 2102.8611
352.33936 -80.520515 2102.9561
353.34622 -80.554153 2102.9871
349.98596 -79.390938 2102.8455
350.61868 -79.473442 2102.9485
351.35495 -79.414032 2102.8594
352.00995 -79.462181 2102.9282
348.61261 -78.336906 2102.8286
349.57211 -78.449387 2102.9512
350.63751 -78.409584 2102.9111
351.24887 -78.541588 2103.0449
315.34381 -77.375565 2102.915
345.87253 -76.905853 2102.7703
346.50977 -76.984505 2102.8665
347.61444 -77.229027 2102.7881
348.55746 -77.723808 2102.917
349.09692 -77.941299 2103.1086
345.87527 -76.199539 2102.7844
346.47601 -76.347015 2102.9243
347.5152 -76.345665 2102.9226
315.34384 -75.645607 2102.915
344.47495 -75.567749 2102.8354
345.42709 -75.671097 2102.9407
346.45352 -75.690819 2102.9617
347.60504 -76.028893 2103.3479
343.55817 -74.322052 2102.7024
344.34689 -74.686638 2102.9822
345.01636 -74.737671 2103.0464
341.05347 -73.429985 2102.7683
341.7637 -73.387505 2102.7644
342.336 -73.562401 2102.9092
343.33731 -73.622688 2102.9587
314.65182 -72.185699 2102.915
340.58566 -72.552002 2102.9373
341.53705 -73.008904 2103.022
342.24875 -72.998917 2103.0266
314.65182 -71.493721 2102.915
340.53278 -71.584648 2103.0112
314.65182 -70.801743 2102.915
336.63599 -70.235237 2102.8154
337.5383 -70.400032 2102.8706
338.14386 -70.520027 2102.9558
336.47461 -69.383606 2102.887
334.51068 -68.23632 2102.8921
335.37808 -68.415359 2102.9434
336.30444 -68.907402 2103.0891
332.05191 -67.152939 2102.7363
333.448 -67.149704 2102.7759
334.02301 -67.349915 2102.9204
332.02994 -66.482689 2102.8
332.65393 -66.631287 2102.9014
333.23331 -66.825348 2103.0503
333.92026 -66.830162 2103.0837
329.65991 -65.089943 2102.7571
330.56964 -65.608978 2102.9126
331.3652 -65.917946 2103.0847
332.57211 -66.077339 2103.0222
313.95987 -64.573914 2102.9148
329.50357 -64.609665 2102.9451
313.95987 -63.535942 2102.915
326.5087 -63.042824 2102.7776
327.66138 -63.28809 2102.8042
328.48331 -63.546555 2102.9248
329.33325 -63.761093 2103.0188
313.81235 -62.515415 2102.8706
325.39258 -62.476227 2102.896
326.40533 -62.512051 2102.927
326.97287 -62.7421 2103.1064
323.67459 -61.072044 2102.8726
324.32596 -61.131516 2102.9333
325.38541 -61.4482 2102.9019
326.37952 -61.860477 2102.9717
322.63849 -60.383366 2102.8755
323.60339 -60.469505 2102.9644
324.327 -60.438725 2102.9329
313.25705 -59.384529 2102.9106
320.8923 -59.016068 2102.8967
321.56757 -59.390022 2102.9209
322.51086 -59.504276 2103.0305
313.26788 -58.346085 2102.915
319.56284 -58.220264 2102.8027
320.53574 -58.342911 2102.9124
321.55786 -58.366543 2102.9353
322.1785 -58.485874 2103.0562
313.26791 -57.654102 2102.915
318.48251 -57.617004 2102.884
319.436 -57.74929 2102.9961
320.04684 -57.917713 2103.1238
313.78156 -56.719196 2103.03
316.39563 -56.240318 2102.8904
317.50006 -56.510983 2102.8254
318.45413 -56.621281 2102.9197
313.61337 -55.577667 2102.9119
316.39972 -55.546261 2102.8823
317.35498 -55.662754 2102.9941
313.66769 -54.579002 2103.0195
314.67343 -54.50705 2102.864
315.27081 -54.643837 2103.0461
315.9144 -55.068954 2103.1216
313.95844 -53.565044 2102.969
314.59848 -53.597076 2103.0076
313.94092 -53.186108 2103.3191
374.71469 -43.266407 2102.8433
374.06146 -42.532459 2102.9888
302.1962 -21.671093 2102.915
302.19617 -20.633121 2102.915
302.1962 -19.595148 2102.9148
302.1962 -18.557178 2102.915
302.19617 -17.519205 2102.915
302.19617 -16.481236 2102.915
302.1962 -15.443263 2102.915
302.1962 -14.405292 2102.915
331.25937 -14.059309 2102.915
331.2594 -13.36732 2102.915
330.56741 -12.675339 2102.9148
331.2594 -12.67534 2102.915
330.56741 -11.983357 2102.915
302.1962 -10.599396 2102.915
302.19617 -9.5614243 2102.915
302.1962 -8.5234528 2102.915
302.19617 -7.4854813 2102.915
302.1962 -6.4475098 2102.915
302.1962 -5.4095383 2102.915
302.1962 -4.3715672 2102.915
302.19617 -3.6795859 2102.915
302.19617 -2.6416144 2102.915
302.1962 -1.6036429 2102.915
308.07272 -99.629135 2105.2432
308.07275 -98.590019 2105.2432
308.07275 -97.550888 2105.2432
317.07169 -94.435677 2105.241
307.37799 -93.394958 2105.2424
316.51196 -93.341484 2105.2898
316.34833 -92.364807 2105.2302
316.24515 -91.692291 2105.1956
366.60986 -90.277046 2105.2432
315.74817 -89.576279 2105.2588
365.76608 -89.496613 2104.9905
366.59119 -89.592957 2105.3005
367.63458 -89.581032 2105.2883
368.26294 -89.505722 2105.4001
315.69293 -88.545181 2105.2432
365.57086 -88.198753 2105.2432
366.58621 -88.56295 2105.3232
367.64899 -88.545181 2105.2432
368.77213 -88.521431 2105.5901
315.69293 -87.506058 2105.2432
365.69986 -87.398346 2105.0945
366.58838 -87.533981 2105.2996
362.8811 -85.978508 2105.1011
363.50125 -86.108437 2105.2305
364.5575 -86.433189 2105.2102
365.53503 -86.514313 2105.2925
366.15762 -86.926727 2105.4109
362.58356 -85.23848 2105.0833
363.40683 -85.555725 2105.3564
360.39819 -84.013046 2105.2139
361.45944 -84.321465 2105.1873
362.3168 -84.531578 2105.2683
363.40521 -84.908623 2105.4094
358.77948 -83.171608 2105.0444
359.35196 -83.32914 2105.2236
360.27155 -83.481522 2105.3643
358.78677 -82.482956 2105.0754
359.27621 -82.718491 2105.3042
360.01773 -82.670204 2105.2568
355.89273 -81.227524 2105.1982
356.5618 -81.276588 2105.25
357.5773 -81.653244 2105.3035
358.63715 -81.625244 2105.2517
359.27649 -82.034409 2105.3245
315.00021 -80.57859 2105.2432
354.55643 -80.489365 2105.1421
355.56641 -80.507317 2105.1787
356.58218 -80.544968 2105.2122
357.8812 -80.682579 2105.3611
315.00018 -79.539467 2105.2432
353.89633 -79.063606 2105.1362
354.48962 -79.535942 2105.2402
355.37125 -79.714653 2105.2925
356.48575 -80.065605 2105.406
314.85257 -78.517807 2105.1987
352.68646 -78.163612 2104.959
353.44635 -78.501884 2105.2444
350.54807 -76.800934 2104.9675
351.49216 -77.2798 2105.1067
352.28885 -77.621841 2105.3613
353.56049 -78.091728 2105.5483
349.05615 -76.250725 2105.0679
349.75757 -76.233154 2105.052
350.36584 -76.373932 2105.2002
351.00134 -76.450356 2105.2698
346.98343 -74.830101 2105.0566
347.63174 -75.264893 2105.1418
348.67355 -75.332069 2105.292
349.47928 -75.615265 2105.4282
350.30005 -75.783493 2105.2925
350.87155 -75.942467 2105.4487
314.4248 -74.329132 2105.2786
346.51468 -74.354736 2105.2515
347.49783 -74.440865 2105.3152
348.05255 -74.663254 2105.4949
314.30746 -73.651115 2105.2432
344.84845 -73.552025 2105.1497
345.53989 -73.562485 2105.1636
346.43149 -73.803398 2105.3718
347.48718 -73.80101 2105.3848
314.30743 -72.612 2105.2432
342.77563 -72.164948 2105.1396
343.4364 -72.568993 2105.1992
344.39859 -72.668411 2105.293
345.32959 -73.185204 2105.4419
342.35846 -71.579483 2105.25
343.32269 -71.672363 2105.3352
344.02719 -71.659409 2105.335
340.65228 -70.505135 2105.2019
341.41888 -70.406029 2105.1135
342.14444 -70.775146 2105.3616
343.3176 -71.010651 2105.3743
338.57236 -69.459229 2105.2012
339.93909 -69.494629 2105.2432
340.64764 -69.474884 2105.2224
341.27524 -69.571411 2105.3191
313.61469 -68.109131 2105.2432
336.55148 -68.021576 2105.1663
337.61426 -68.361595 2105.2651
339.59671 -68.449036 2105.2363
340.59302 -68.872055 2105.3169
313.61472 -67.416389 2105.2429
336.5672 -67.318413 2105.1543
337.30215 -67.703751 2105.491
313.61469 -66.377274 2105.2432
333.83218 -65.829254 2105.0459
334.44299 -65.97464 2105.1895
335.47495 -66.326431 2105.1985
336.4321 -66.431534 2105.3015
333.36673 -65.326233 2105.2329
334.2915 -65.482361 2105.3621
334.8775 -65.654259 2105.5256
332.50989 -64.38118 2105.0154
333.3006 -64.721474 2105.3093
330.59921 -63.241142 2105.2236
331.63702 -63.591087 2105.2302
332.30444 -63.624489 2105.2603
333.26505 -64.098389 2105.3906
328.91 -62.489559 2105.1641
329.66949 -62.387825 2105.0911
330.51422 -62.66745 2105.3262
313.02963 -61.510372 2105.2766
327.49377 -61.145626 2105.2063
328.61661 -61.423279 2105.2537
329.52695 -61.556087 2105.2695
330.20071 -61.934589 2105.2961
312.92197 -60.488926 2105.2432
326.57635 -60.274952 2105.0601
327.39514 -60.580841 2105.3228
328.11325 -60.566307 2105.314
324.36826 -59.081116 2105.2209
325.46011 -59.349438 2105.1592
326.29703 -59.589935 2105.2632
323.52228 -58.133816 2105.0193
324.36185 -58.397568 2105.2312
325.30246 -58.543152 2105.3574
321.72498 -57.211231 2105.2029
322.65482 -57.323414 2105.2078
323.28494 -57.752945 2105.2725
323.82208 -57.981503 2105.4417
320.66428 -56.102512 2105.0374
321.59229 -56.316193 2105.2283
322.51743 -56.484642 2105.3884
318.54529 -55.510376 2105.1052
319.49158 -55.655796 2105.2644
320.54178 -55.640343 2105.2439
321.20285 -55.696995 2105.2944
317.77029 -54.601883 2105.2446
318.4592 -54.607895 2105.25
319.37598 -54.732296 2105.2585
312.42987 -53.631557 2105.3208
315.7551 -53.461475 2105.1533
316.37933 -53.570702 2105.2524
317.44293 -53.539234 2105.2109
318.38589 -53.675697 2105.3672
313.04919 -52.25708 2105.3418
313.66019 -52.422554 2105.1216
314.30283 -52.186623 2105.2561
315.32797 -52.554462 2105.2725
316.33841 -52.948326 2105.323
317.07123 -52.880283 2105.2551
312.95001 -51.570091 2105.4604
313.61734 -51.466465 2105.1753
314.29977 -51.496834 2105.2656
315.32825 -51.513657 2105.2847
312.69507 -50.609585 2105.3013
313.61966 -50.775791 2105.2285
314.23587 -50.586823 2105.4121
373.8837 -41.092003 2105.2429
374.57645 -41.092003 2105.2432
373.88373 -40.399254 2105.2429
374.57645 -40.399258 2105.2432
374.57645 -39.706509 2105.2429
301.14526 -18.231348 2105.2432
301.14526 -17.538601 2105.2432
301.14526 -16.499481 2105.2432
301.14526 -15.460361 2105.2432
301.14526 -14.42124 2105.2432
301.14526 -13.382119 2105.2432
301.49164 -12.689372 2105.2432
301.50586 -11.999012 2105.2458
330.58701 -10.611131 2105.2432
330.81134 -9.7294178 2105.2583
307.72064 -101.47334 2107.5764
307.72064 -100.43307 2107.5767
316.7753 -95.206284 2107.5898
315.50745 -93.110176 2107.635
315.88074 -93.906242 2107.5149
315.35602 -92.456894 2107.5786
315.35464 -91.416748 2107.5781
372.90598 -90.919945 2107.7092
315.34933 -90.377106 2107.5764
369.40179 -90.381126 2107.6282
370.83051 -90.377106 2107.5764
371.52356 -90.323715 2107.731
372.91138 -90.390533 2107.5642
373.54001 -90.308228 2107.677
315.34933 -89.683586 2107.5764
369.58386 -89.662735 2107.3979
370.49115 -89.682121 2107.5444
371.52249 -89.713745 2107.4661
372.59915 -89.66069 2107.5168
373.39041 -89.722832 2107.8069
315.34933 -88.990074 2107.5764
370.50876 -88.630951 2107.4641
371.50656 -88.664413 2107.6208
372.51678 -89.060349 2107.6824
369.63647 -87.45047 2107.2986
370.3736 -87.692902 2107.7368
366.7417 -86.080872 2107.4468
367.35767 -86.225319 2107.5847
368.41663 -86.541351 2107.5527
369.41962 -86.599068 2107.6094
370.03528 -87.00528 2107.7205
365.64868 -85.491249 2107.5447
366.67569 -85.513443 2107.5686
367.24716 -85.68325 2107.7268
368.00369 -85.619225 2107.6646
363.64841 -84.001503 2107.4233
364.57169 -84.158844 2107.6011
365.64917 -84.454193 2107.5498
366.64252 -84.863647 2107.6086
314.65582 -83.441956 2107.5767
362.70575 -83.126404 2107.2961
363.59607 -83.37989 2107.5239
364.43274 -83.657326 2107.7563
365.21414 -83.551132 2107.6875
314.56351 -82.416367 2107.5466
361.58246 -82.287628 2107.5786
362.51791 -82.388016 2107.5642
363.49905 -82.82238 2107.6436
359.82074 -81.209488 2107.4297
360.55869 -81.187569 2107.4148
361.48138 -81.342712 2107.5571
362.40176 -81.500801 2107.7092
359.38135 -80.675499 2107.5833
360.32593 -80.821205 2107.7122
361.0892 -80.720787 2107.6228
356.34515 -79.13839 2107.425
357.67776 -79.585594 2107.5425
358.39862 -79.544106 2107.5154
359.13528 -79.939972 2107.738
354.98413 -78.462646 2107.429
355.57321 -78.587303 2107.5764
356.59027 -78.625801 2107.6204
357.53119 -78.769814 2107.7478
358.27185 -78.712425 2107.7029
313.96231 -77.547081 2107.5764
353.58881 -77.065254 2107.4268
354.63501 -77.448509 2107.5984
355.51135 -77.62722 2107.6726
356.61703 -77.888672 2107.5703
313.96231 -76.506805 2107.5764
352.27182 -76.291809 2107.3333
353.57312 -76.39901 2107.4839
354.44498 -76.643112 2107.6978
355.50198 -76.600182 2107.6855
313.96231 -75.813293 2107.5767
350.81534 -74.965874 2107.439
351.42197 -75.106186 2107.5642
352.35638 -75.584297 2107.6807
353.46567 -75.855232 2107.6169
354.09036 -75.975548 2107.7527
349.37695 -74.351929 2107.5127
350.76593 -74.365761 2107.5288
351.29877 -74.597275 2107.7148
347.97784 -72.997627 2107.5366
348.65012 -73.368599 2107.5591
349.29886 -73.436295 2107.6165
350.24255 -73.5233 2107.5979
351.33887 -73.849548 2107.6963
346.59207 -72.286041 2107.5164
347.64127 -72.282951 2107.519
348.40701 -72.634674 2107.8359
345.22766 -71.571259 2107.4846
346.6145 -71.573006 2107.498
347.58435 -71.672173 2107.5967
313.2688 -70.265175 2107.5764
343.80469 -70.234764 2107.5471
344.48273 -70.603806 2107.5679
345.42261 -70.737274 2107.7134
346.54346 -70.977783 2107.5969
347.14188 -71.140526 2107.7766
313.2688 -69.571663 2107.5764
342.46967 -69.460129 2107.4712
343.52759 -69.457481 2107.4673
344.34769 -69.752678 2107.7485
313.2688 -68.531387 2107.5764
341.37683 -68.160439 2107.5547
342.34326 -68.599487 2107.6355
343.30161 -68.675667 2107.6055
344.36432 -69.059143 2107.7834
340.50751 -67.253441 2107.3887
341.20566 -67.66877 2107.7236
337.58505 -66.024567 2107.4939
338.22757 -66.461769 2107.5876
340.27505 -66.517303 2107.6384
336.87827 -65.37989 2107.5393
337.51907 -65.441696 2107.6179
338.59033 -65.399078 2107.5598
312.57526 -64.3703 2107.5767
335.48486 -64.338928 2107.5396
336.50632 -64.364754 2107.5708
337.51889 -64.394562 2107.6067
312.57529 -63.330025 2107.5764
333.48566 -63.184048 2107.3906
334.50549 -63.229153 2107.4626
335.46988 -63.317116 2107.5623
336.11029 -63.395634 2107.6426
312.57526 -62.636509 2107.5764
332.70538 -62.605263 2107.5405
333.36813 -62.653358 2107.5986
334.32327 -62.76873 2107.7175
330.67865 -61.116104 2107.4385
331.64676 -61.596447 2107.5767
332.68719 -61.596237 2107.5764
333.39517 -61.574333 2107.5366
334.06366 -61.956059 2107.5925
330.07532 -60.350056 2107.3794
330.6069 -60.555592 2107.5762
331.64069 -60.568314 2107.5886
333.27026 -60.719715 2107.7837
327.53317 -59.083611 2107.4751
328.54471 -59.49094 2107.5415
329.54703 -59.536869 2107.5994
330.5542 -59.927204 2107.6421
326.50345 -58.357109 2107.4497
327.50803 -58.434597 2107.5327
328.55453 -58.429188 2107.5176
329.21445 -58.483044 2107.585
324.45096 -56.967163 2107.4529
325.61734 -57.20047 2107.4727
326.38376 -57.547485 2107.6736
327.47739 -57.799953 2107.5925
328.48972 -57.875904 2107.6711
329.05722 -58.030991 2107.8804
311.88177 -56.394875 2107.5767
323.72025 -56.321743 2107.5073
324.44641 -56.305061 2107.4897
325.39618 -56.407398 2107.5886
311.88174 -55.354603 2107.5767
321.67004 -54.888199 2107.447
322.74603 -55.240078 2107.5779
323.60733 -55.43861 2107.6584
324.22903 -55.87236 2107.7429
324.96219 -55.826797 2107.7151
311.88177 -54.314331 2107.5764
320.90308 -54.304745 2107.5664
321.57562 -54.334721 2107.6011
322.63843 -54.304817 2107.5647
311.88174 -53.620815 2107.5764
319.58203 -53.51358 2107.458
320.60043 -53.546379 2107.4951
321.61145 -53.588474 2107.5413
322.28906 -53.613373 2107.5684
318.49915 -52.546829 2107.5417
319.48309 -52.61824 2107.6309
320.43954 -52.690144 2107.5691
321.5242 -53.030632 2107.6904
317.61673 -51.301983 2107.3445
318.48471 -51.521824 2107.5583
315.40894 -50.387104 2107.4712
316.37805 -50.474728 2107.4368
317.40884 -50.528149 2107.6038
318.0553 -50.971111 2107.6934
312.59058 -49.368843 2107.4844
313.97916 -49.425354 2107.5437
314.69742 -49.360546 2107.4966
315.31076 -49.529858 2107.6404
311.98816 -48.33223 2107.7107
312.54529 -48.459156 2107.5103
313.62592 -48.402596 2107.5508
314.61765 -48.489819 2107.6492
315.30804 -48.862034 2107.6741
311.89642 -47.393768 2107.6035
311.93802 -47.072037 2108.0305
374.64484 -38.363487 2107.5767
374.2981 -37.669971 2107.5767
330.77164 -8.3156776 2107.4185
331.28284 -8.5661535 2107.593
329.91315 -7.8488321 2107.5767
330.60669 -7.5020742 2107.5764
314.99802 -93.95256 2109.9121
373.79752 -90.516258 2108.845
374.68594 -91.18325 2109.9744
375.40771 -91.171669 2109.915
376.4491 -91.171669 2109.915
377.46808 -91.084572 2109.988
374.77808 -90.428978 2109.7744
376.44913 -90.477386 2109.915
377.46033 -90.496414 2109.9656
377.97174 -90.572014 2110.1753
374.51953 -89.293625 2109.8247
376.42575 -89.467262 2109.9739
373.38254 -88.356262 2109.8442
374.32336 -88.431236 2110.02
375.36694 -88.435318 2110.0022
314.31067 -87.005959 2109.9148
371.94055 -87.000137 2109.9084
372.74344 -87.205124 2109.7642
373.27896 -87.411064 2109.9705
373.9754 -87.402557 2109.9709
314.31064 -86.311676 2109.915
370.62149 -86.196327 2109.7971
371.63333 -86.248856 2109.8552
372.61594 -86.329643 2109.9321
314.31067 -85.617393 2109.915
369.55728 -85.54332 2109.8523
370.55109 -85.612404 2109.9109
371.1514 -85.767845 2110.04
372.42404 -85.891609 2110.2151
314.31067 -84.923111 2109.915
367.4722 -84.158188 2109.8486
368.49442 -84.188736 2109.8821
369.43195 -84.689667 2109.9993
370.48325 -85.031113 2110.0027
366.43652 -83.471115 2109.8467
367.44186 -83.510376 2109.8909
368.41742 -83.605316 2109.98
363.77347 -81.868202 2109.6045
364.98178 -82.165535 2109.9338
365.78387 -82.35006 2109.7864
366.33456 -82.562981 2109.9775
367.03476 -82.542549 2109.9666
313.61639 -81.451683 2109.915
363.6261 -81.422287 2109.8792
364.61884 -81.491951 2109.9609
365.66934 -81.4785 2109.9419
nan nan nan
361.59973 -79.960655 2109.8052
362.55988 -80.414459 2109.9192
363.57639 -80.79425 2109.9575
364.30652 -80.747047 2109.9028
365.53574 -81.014732 2110.1968
313.61639 -79.368835 2109.915
360.95874 -79.136002 2109.7185
361.58209 -79.287148 2109.8438
362.55887 -79.37429 2109.9207
313.61639 -78.674553 2109.915
359.51215 -78.594414 2109.823
360.48639 -78.665802 2109.907
361.49438 -78.717049 2109.9551
362.65125 -79.029907 2110.292
358.63885 -77.328529 2109.6433
359.39511 -77.692337 2109.9646
360.08484 -77.704094 2109.979
356.71701 -76.499519 2109.8281
357.45166 -76.460007 2109.8027
358.39948 -76.589142 2109.9128
353.98047 -75.051483 2109.7754
354.61725 -75.1408 2109.8623
355.61664 -75.556618 2109.9199
356.64471 -75.926895 2109.937
357.34387 -75.919258 2109.9346
358.52536 -76.228439 2110.2581
353.97009 -74.355385 2109.7947
354.52765 -74.579056 2109.9719
355.086 -74.794441 2110.1545
351.5347 -73.010132 2109.8179
352.49136 -73.474091 2109.9214
353.55511 -73.445183 2109.8911
354.49112 -73.947845 2110.05
312.92209 -72.425995 2109.915
350.44244 -72.382629 2109.8792
351.39774 -72.515244 2109.9839
312.92212 -71.384567 2109.915
348.43015 -70.921532 2109.7874
349.47684 -71.281754 2109.9333
350.42386 -71.370651 2109.8975
351.26599 -71.598076 2110.02
347.68552 -70.272362 2109.8423
348.31772 -70.357536 2109.9302
348.91376 -70.48558 2110.0735
346.60101 -69.639198 2109.9053
347.67154 -69.605415 2109.874
348.22549 -69.802345 2110.0632
344.60858 -68.121109 2109.783
345.55841 -68.599846 2109.9072
346.61075 -68.586037 2109.8926
347.61417 -68.982803 2109.9443
348.23862 -69.098366 2110.0786
343.47934 -67.551308 2109.9016
344.52203 -67.553001 2109.9038
345.33612 -67.885124 2110.1863
312.22781 -66.524574 2109.915
341.44809 -66.107742 2109.834
342.54245 -66.384941 2109.7717
343.47803 -66.514038 2109.9045
344.34668 -66.71418 2109.9822
312.22784 -65.483147 2109.9148
340.7103 -65.464516 2109.8916
341.36362 -65.507759 2109.9473
342.42136 -65.493698 2109.926
312.22781 -64.441719 2109.915
340.13684 -64.257416 2109.7231
340.71432 -64.420982 2109.8923
341.34479 -64.493141 2109.9731
337.62289 -63.318275 2109.8232
339.96539 -63.448673 2109.9644
335.58063 -61.908382 2109.7793
336.53793 -62.345802 2109.8979
337.45361 -62.474411 2109.9148
338.61322 -62.702671 2109.9121
335.47635 -61.328831 2109.9314
336.54886 -61.293808 2109.8889
337.13513 -61.41301 2110.0322
334.47021 -60.586926 2109.8777
335.51566 -60.580017 2109.8511
336.45999 -60.702778 2110.0146
331.07416 -59.094303 2109.7388
332.37915 -59.548977 2109.8884
333.35245 -59.569099 2109.8176
334.37744 -60.033058 2110.002
335.77225 -60.02845 2110.033
311.53354 -58.540302 2109.915
330.66483 -58.489063 2109.864
331.65283 -58.55788 2109.9343
332.3631 -58.538902 2109.9136
333.00397 -58.626865 2109.998
311.53354 -57.498875 2109.915
328.63556 -56.956985 2109.7537
329.68582 -56.994007 2109.7922
330.49084 -57.640327 2109.9397
331.65115 -57.865059 2109.9375
326.86829 -56.364025 2109.8098
327.50003 -56.461773 2109.9192
328.58115 -56.381714 2109.8606
329.48315 -56.651672 2110.0676
330.0314 -56.817314 2110.2493
325.50104 -54.986137 2109.8159
326.44226 -55.438389 2109.9399
327.51254 -55.399757 2109.8879
328.51474 -55.817089 2109.9705
324.95557 -54.080299 2109.6411
325.4855 -54.302761 2109.8477
325.99023 -54.531906 2110.064
324.47488 -53.547642 2109.7947
325.38266 -53.734432 2109.9646
325.94742 -53.879612 2110.1445
321.70801 -52.108799 2109.7563
322.71088 -52.545956 2109.8435
323.24469 -52.781601 2110.0186
324.33752 -53.059193 2109.9771
321.6008 -51.597252 2109.9148
310.83923 -50.55603 2109.915
318.56146 -50.07909 2109.783
319.50156 -50.577431 2109.9377
320.56979 -50.542809 2109.9006
321.54498 -50.975487 2109.9868
310.83923 -49.514606 2109.915
317.95691 -49.234127 2109.6689
318.52783 -49.444378 2109.8582
319.0864 -49.666786 2110.0349
310.72174 -48.445389 2109.8516
315.76727 -48.025208 2109.8208
316.39072 -48.130146 2109.9187
317.45578 -48.44241 2109.8877
318.43918 -48.877357 2109.968
319.07602 -48.970932 2110.0537
311.00293 -47.467182 2109.9958
314.33182 -47.388081 2109.8762
315.3717 -47.401413 2109.8923
316.21332 -47.704735 2110.1423
310.9913 -46.438618 2110.0769
311.58032 -46.267708 2109.4189
312.74115 -46.171097 2109.5085
313.60022 -46.065285 2109.9421
314.3219 -46.371998 2109.8979
314.9584 -46.458946 2109.978
310.96481 -45.513599 2110.3066
311.52707 -45.319771 2109.8469
312.57349 -45.351246 2109.9202
313.55389 -45.436768 2110.0337
310.90228 -44.711533 2110.0264
311.52295 -44.618168 2109.8611
312.24451 -44.606327 2109.863
311.03674 -43.881115 2110.2046
311.52765 -44.149742 2110.1321
312.19604 -44.114628 2110.0781
374.78091 -36.302406 2109.8882
374.71341 -35.628918 2109.915
374.25058 -34.703209 2109.915
330.27921 -4.3861184 2109.915
313.96475 -91.968002 2112.2588
378.79395 -91.092247 2111.9617
379.51755 -91.51825 2112.2922
380.66061 -91.21051 2112.3718
313.96475 -90.577888 2112.2588
379.59082 -90.631271 2112.4136
380.7019 -90.576363 2112.2417
381.22849 -90.574921 2112.468
313.96472 -89.535309 2112.2588
377.93152 -89.168449 2112.2295
378.57584 -89.565681 2112.3091
379.60037 -89.58046 2112.3879
380.60999 -89.598816 2112.3958
313.82513 -88.508659 2112.2153
377.71704 -88.358696 2112.0725
378.57584 -88.521049 2112.3018
379.2049 -88.605873 2112.4182
375.82288 -87.105118 2112.2612
376.63 -87.303047 2112.1057
377.45941 -87.55159 2112.2446
373.86829 -86.232803 2112.0789
374.56244 -86.1856 2112.0735
375.45685 -86.437843 2112.2854
376.50867 -86.426514 2112.2756
377.08707 -86.571815 2112.4265
313.26968 -85.364975 2112.2588
372.4086 -84.931976 2112.1785
373.49097 -85.272049 2112.28
374.28 -85.589752 2112.4463
375.11194 -85.739372 2112.2837
313.26971 -84.322388 2112.2588
370.99066 -84.260193 2112.2014
371.77786 -84.106422 2112.0791
372.39355 -84.251389 2112.1978
373.26727 -84.520889 2112.4351
313.26971 -83.627327 2112.2588
369.6304 -83.541733 2112.1709
370.59839 -83.649498 2112.2842
371.56335 -83.768684 2112.3958
372.31738 -83.691429 2112.321
372.95377 -83.772003 2112.4124
313.26968 -82.584747 2112.2588
368.53293 -82.228905 2112.25
369.54373 -82.620216 2112.3132
370.50101 -82.693619 2112.2471
366.91568 -81.382561 2112.0867
367.48337 -81.542992 2112.2593
368.50684 -81.567459 2112.2864
369.53015 -81.596375 2112.3235
365.48737 -80.042992 2112.1523
366.59167 -80.341324 2112.2266
367.30911 -80.721382 2112.4387
368.45593 -80.950592 2112.3711
364.4223 -79.343758 2112.1641
365.46552 -79.370407 2112.1885
365.96655 -79.622787 2112.3936
362.05609 -77.860847 2112.0544
362.71548 -78.264343 2112.1201
363.30191 -78.083885 2112.2754
364.29498 -78.510422 2112.3364
365.36423 -78.818848 2112.3137
365.93008 -78.955246 2112.4624
361.5744 -77.374741 2112.2615
362.57086 -77.445381 2112.3213
363.13107 -77.655632 2112.5107
312.57465 -76.676781 2112.2585
359.97177 -76.515343 2112.0698
360.65863 -76.491386 2112.0815
361.54221 -76.728294 2112.3047
362.59015 -76.726898 2112.3083
312.57465 -75.634193 2112.2588
358.58841 -75.451637 2112.0645
359.58527 -75.544807 2112.2866
360.33743 -75.860603 2112.4785
361.50571 -76.077271 2112.3591
312.57465 -74.591614 2112.2588
357.40747 -74.588013 2112.2551
358.49863 -74.522507 2112.1982
359.048 -74.735184 2112.3865
312.57465 -73.549026 2112.2588
355.04611 -73.09198 2112.1436
355.6929 -73.512314 2112.2195
356.4162 -73.469833 2112.1841
357.41037 -73.541634 2112.252
358.41629 -73.95446 2112.3105
359.01413 -74.084717 2112.4766
354.61038 -72.528122 2112.2832
355.58435 -72.59671 2112.3491
356.32642 -72.560333 2112.3123
352.67902 -71.321037 2112.2263
353.60565 -71.433296 2112.2205
354.61899 -71.472038 2112.2668
355.61783 -71.881615 2112.3298
351.50375 -70.413261 2112.2502
352.51566 -70.452438 2112.2905
353.52539 -70.506554 2112.3364
311.87961 -69.031166 2112.2588
350.625 -69.156509 2112.0359
351.48837 -69.390335 2112.2695
352.18533 -69.737221 2112.2686
311.87958 -68.336113 2112.2588
348.45166 -68.20652 2112.1379
349.46442 -68.26664 2112.1956
350.42477 -68.376389 2112.2969
311.87958 -67.641052 2112.2585
347.34375 -67.614937 2112.2361
348.38617 -67.615936 2112.2373
349.2482 -67.90934 2112.4932
345.73755 -66.431297 2112.208
346.61646 -66.623413 2112.2917
347.34341 -66.57505 2112.2295
347.97815 -66.670242 2112.3342
343.93671 -65.440643 2112.1292
344.67111 -65.376442 2112.0981
345.23178 -65.571251 2112.2722
346.60983 -65.593636 2112.2937
343.61816 -64.376785 2112.1199
344.5296 -64.534729 2112.2788
345.1799 -64.955475 2112.3481
341.50632 -63.364037 2112.137
342.49533 -63.433796 2112.2236
343.46881 -63.519642 2112.3054
340.36621 -62.445831 2112.2742
341.2981 -62.550529 2112.2646
342.39258 -62.868382 2112.3474
338.34723 -61.294815 2112.1748
340.37637 -61.386364 2112.2593
341.0228 -61.471313 2112.3455
311.18451 -60.690495 2112.2585
337.6546 -60.615952 2112.1897
338.27682 -60.711525 2112.2773
311.18451 -59.647915 2112.2588
336.73148 -59.45293 2112.198
337.59189 -59.652603 2112.2622
338.29926 -59.985863 2112.251
311.18454 -58.605328 2112.2588
334.50922 -58.538227 2112.1938
335.5748 -58.504139 2112.1797
336.4267 -58.793213 2112.4062
332.78119 -57.487827 2112.1885
333.49902 -57.459656 2112.1772
334.26736 -57.808002 2112.3547
335.45459 -58.018856 2112.3489
332.44229 -56.434265 2112.1824
333.37125 -56.600368 2112.3311
329.80414 -55.231503 2112.1318
330.66312 -55.454018 2112.24
331.36295 -55.792698 2112.2339
332.33044 -55.920818 2112.3486
328.57028 -54.422001 2112.2451
329.44812 -54.629326 2112.4277
325.89044 -52.832348 2112.0496
326.50729 -52.992985 2112.2063
327.6225 -53.240875 2112.124
328.55905 -53.394924 2112.2612
329.15244 -53.529148 2112.3967
325.43597 -52.344646 2112.2542
326.43564 -52.422829 2112.3201
327.00723 -52.617596 2112.4888
323.71149 -51.629349 2112.2312
324.38217 -51.667736 2112.2732
325.39725 -51.714375 2112.3198
326.42828 -51.740265 2112.3538
322.34534 -50.223789 2112.2107
323.3334 -50.629082 2112.2766
324.39407 -50.954605 2112.2529
325.37564 -51.052181 2112.3616
321.62241 -49.554764 2112.2434
322.32309 -49.551292 2112.2405
322.97934 -49.595806 2112.2869
318.94482 -47.974049 2112.0627
319.55414 -48.129333 2112.2124
320.60678 -48.468426 2112.208
321.60892 -48.529041 2112.2607
322.17407 -48.709736 2112.4575
310.00592 -47.471436 2112.3284
318.61258 -47.276001 2112.106
319.43616 -47.645405 2112.3752
316.19339 -45.884029 2112.094
317.46478 -46.402824 2112.231
318.33142 -46.615204 2112.3044
319.45154 -46.922512 2112.3691
314.73398 -45.312172 2112.1685
315.43515 -45.30851 2112.1729
316.19415 -45.646954 2112.469
310.5874 -43.685158 2111.5918
313.63672 -43.984661 2112.2336
