ply
format ascii 1.0
comment PCL generated
element vertex 1554
property float x
property float y
property float z
element camera 0
property float view_px
property float view_py
property float view_pz
property float x_axisx
property float x_axisy
property float x_axisz
property float y_axisx
property float y_axisy
property float y_axisz
property float z_axisx
property float z_axisy
property float z_axisz
property float focal
property float scalex
property float scaley
property float centerx
property float centery
property int viewportx
property int viewporty
property float k1
property float k2
end_header
276.42633 -185.3369 2146.4529
278.84329 -184.54146 2145.8704
280.4455 -184.49939 2145.626
281.50458 -184.49939 2145.626
282.19034 -184.49518 2145.5605
360.62042 -184.48021 2145.5693
361.63959 -184.49939 2145.626
362.68845 -184.50439 2145.6401
278.82141 -183.4462 2145.7693
280.44553 -183.44032 2145.626
281.50458 -183.44034 2145.626
282.44595 -183.32266 2145.626
359.98199 -183.40274 2145.4856
360.56055 -183.4487 2145.6807
361.52194 -183.55803 2145.626
362.57697 -183.11795 2145.7991
278.8587 -182.46524 2145.8384
280.4455 -182.38129 2145.626
281.50458 -182.38129 2145.626
282.56366 -182.38129 2145.626
283.54178 -182.33664 2145.4797
359.91464 -182.37036 2145.5332
360.58054 -182.38127 2145.626
361.28656 -182.38129 2145.626
279.01868 -181.95378 2146.0676
280.11646 -181.69872 2145.7039
281.50458 -181.67526 2145.626
282.56363 -181.67525 2145.626
283.60046 -181.65781 2145.5413
359.87451 -181.67525 2145.6262
360.58054 -181.67525 2145.626
361.28656 -181.67525 2145.626
281.50458 -180.6162 2145.626
282.56366 -180.61621 2145.626
283.62268 -180.61618 2145.626
284.97229 -180.24191 2145.53
359.56097 -180.614 2145.573
360.58054 -180.6162 2145.626
361.28659 -180.6162 2145.626
281.50458 -179.55714 2145.626
282.56366 -179.55713 2145.626
283.62268 -179.55714 2145.626
284.97842 -179.53232 2145.5325
359.52148 -179.55713 2145.626
360.63654 -179.54448 2145.5344
361.19818 -179.57817 2145.7229
281.50458 -178.49809 2145.626
282.56363 -178.49808 2145.626
283.62268 -178.49811 2145.626
284.3287 -178.14507 2145.626
285.01202 -178.48856 2145.5815
359.52148 -178.49809 2145.626
360.58362 -178.49721 2145.6226
281.57437 -177.46426 2145.7683
282.56363 -177.43903 2145.626
283.62268 -177.43904 2145.626
284.32874 -177.43904 2145.626
285.03003 -177.43788 2145.5967
286.19711 -177.3354 2145.3093
359.52148 -177.43904 2145.626
360.54544 -177.44751 2145.6616
281.67117 -176.81345 2145.8689
282.5773 -176.38464 2145.6633
283.62268 -176.37997 2145.626
284.32874 -176.37997 2145.626
285.38776 -176.37997 2145.626
286.36887 -176.34738 2145.5034
358.54535 -176.3549 2145.4888
359.52148 -176.37999 2145.626
360.53183 -176.39214 2145.6794
282.95413 -175.34767 2145.7139
283.62024 -175.31885 2145.6057
284.32874 -175.32092 2145.626
285.38776 -175.32092 2145.626
286.40359 -175.30759 2145.488
358.4664 -175.31898 2145.6177
359.52148 -175.32092 2145.626
360.50235 -175.3427 2145.7188
282.99329 -174.66051 2145.7351
284.3287 -174.61488 2145.626
285.38776 -174.6149 2145.626
286.44684 -174.61488 2145.626
358.44748 -174.62421 2145.6653
359.52148 -174.6149 2145.626
283.1409 -174.00166 2145.9216
284.32874 -173.55585 2145.626
285.38776 -173.55583 2145.626
286.44681 -173.55585 2145.626
357.11786 -173.53789 2145.5054
358.46243 -173.55585 2145.626
359.49893 -173.56363 2145.6628
284.35181 -172.51097 2145.7136
285.38776 -172.4968 2145.626
286.44684 -172.49678 2145.626
357.09134 -172.48367 2145.5671
358.46243 -172.4968 2145.626
359.45032 -172.52402 2145.7275
284.40591 -171.82733 2145.7612
285.38779 -171.43774 2145.626
286.44684 -171.43773 2145.626
287.35287 -171.29988 2145.5417
357.05176 -171.43715 2145.624
358.47653 -171.42798 2145.593
359.04565 -171.50964 2145.8193
285.38776 -170.37868 2145.626
286.44681 -170.37868 2145.626
287.51086 -170.38193 2145.6533
288.44925 -170.29846 2145.4587
356.98831 -170.40274 2145.6992
285.43246 -169.69136 2145.7568
286.44684 -169.67265 2145.626
287.51776 -169.6837 2145.719
288.54858 -169.66081 2145.5857
289.11359 -169.57838 2145.4309
356.04312 -169.56789 2145.2734
356.98892 -169.69513 2145.7063
285.78458 -168.62325 2145.7068
286.44684 -168.61359 2145.626
287.50586 -168.61359 2145.626
288.56494 -168.61359 2145.626
289.43848 -168.48807 2145.5479
355.78119 -168.58504 2145.4983
356.21243 -168.64278 2145.7788
356.98029 -168.55827 2145.9233
285.80972 -167.56935 2145.7275
286.44681 -167.55453 2145.626
287.50589 -167.55453 2145.626
288.56494 -167.55453 2145.626
289.55093 -167.54787 2145.5244
355.66983 -167.55386 2145.5945
356.34433 -167.55453 2145.626
357.35245 -167.5573 2145.6943
285.82425 -166.5265 2145.7334
286.43246 -166.48807 2145.5684
287.50586 -166.49548 2145.626
288.56494 -166.49548 2145.626
289.58038 -166.48146 2145.499
355.66495 -166.49048 2145.6003
356.34433 -166.49548 2145.626
357.05035 -166.8485 2145.626
285.97717 -165.61815 2145.9341
287.85889 -165.43643 2145.626
288.56491 -165.43643 2145.626
289.62396 -165.43643 2145.626
355.62827 -165.43889 2145.6377
356.34433 -165.43645 2145.626
357.05038 -165.43645 2145.6262
287.85889 -164.37738 2145.626
288.56494 -164.37738 2145.626
289.62396 -164.37738 2145.626
290.63522 -163.98932 2145.4377
354.98529 -164.35881 2145.5364
355.63831 -164.37738 2145.626
356.34433 -164.37738 2145.626
288.5882 -163.32712 2145.7158
289.62399 -163.31833 2145.626
290.67618 -163.31299 2145.5967
354.60672 -163.31102 2145.5854
355.63831 -163.31833 2145.626
356.34433 -163.31833 2145.626
288.61368 -162.63228 2145.7349
289.62396 -162.61229 2145.626
290.68301 -162.61229 2145.626
291.3775 -162.60306 2145.5823
291.9874 -162.55452 2145.4585
354.58325 -162.6111 2145.6189
355.63828 -162.61229 2145.626
356.34433 -162.61229 2145.626
288.64926 -161.58264 2145.7573
289.62396 -161.55324 2145.626
290.68304 -161.55325 2145.626
291.3891 -161.55325 2145.626
292.02307 -161.54356 2145.5208
353.64667 -161.49435 2145.4285
354.55569 -161.5639 2145.7151
355.63831 -161.55322 2145.626
356.34433 -161.55324 2145.626
288.78229 -160.57201 2145.9026
289.63553 -160.49883 2145.6982
290.68304 -160.49419 2145.626
291.3891 -160.49419 2145.626
292.01859 -160.48018 2145.4819
353.54407 -160.48106 2145.5378
354.57922 -160.49419 2145.626
355.6488 -160.4906 2145.5857
356.22821 -160.52144 2145.9082
289.70441 -159.45235 2145.8167
290.68304 -159.43512 2145.626
291.3891 -159.43513 2145.626
292.26883 -159.29263 2145.4856
352.88892 -159.41792 2145.519
353.5202 -159.43512 2145.626
354.57922 -159.43513 2145.626
355.60779 -159.44217 2145.6958
290.04013 -158.39021 2145.7429
290.68304 -158.37608 2145.626
291.38907 -158.37607 2145.626
292.43539 -158.3669 2145.5811
293.32257 -158.24669 2145.3286
352.87784 -158.3672 2145.5051
353.5202 -158.37607 2145.626
354.57922 -158.37608 2145.626
355.55515 -158.40771 2145.7629
290.06012 -157.70267 2145.76
290.68253 -157.66971 2145.6233
291.38907 -157.67004 2145.626
292.44989 -157.67175 2145.6406
293.46762 -157.63574 2145.5232
352.8703 -157.66405 2145.5186
353.52017 -157.67003 2145.626
354.59048 -157.66428 2145.5815
355.47662 -157.75633 2145.8567
290.13037 -157.06438 2145.8545
291.39157 -156.61313 2145.6406
292.44812 -156.61099 2145.626
293.5072 -156.61099 2145.6262
294.21323 -156.25797 2145.626
352.84943 -156.61072 2145.5869
353.5202 -156.61099 2145.626
354.44656 -156.73663 2145.6545
291.46756 -155.61333 2145.8394
292.44812 -155.55194 2145.626
293.50717 -155.55194 2145.626
294.21323 -155.55193 2145.626
352.84464 -155.54396 2145.5916
353.5202 -155.55194 2145.626
354.20291 -155.5618 2145.6545
292.5658 -154.61057 2145.626
293.50717 -154.49289 2145.626
294.53491 -154.47968 2145.571
352.44885 -154.49883 2145.6384
353.52017 -154.8459 2145.626
292.80115 -153.43382 2145.626
293.50717 -153.43384 2145.626
294.57001 -153.4352 2145.6475
295.491 -153.35954 2145.4412
351.43961 -153.41753 2145.5879
352.46112 -153.43384 2145.626
292.5658 -152.49246 2145.626
293.50717 -152.37479 2145.626
294.56622 -152.37477 2145.626
295.63571 -152.3806 2145.6416
296.13327 -152.29062 2145.4058
351.36908 -152.38387 2145.6614
352.46112 -152.37477 2145.626
292.86407 -151.34439 2145.7588
293.50726 -151.31578 2145.6267
294.56622 -151.31573 2145.626
295.63489 -151.32161 2145.6785
296.26154 -151.29588 2145.53
350.77533 -151.29462 2145.5317
351.34726 -151.32858 2145.7161
352.43829 -151.31897 2145.6626
292.90955 -150.65903 2145.8008
294.56622 -150.60968 2145.626
295.62531 -150.60968 2145.626
296.2937 -150.59779 2145.4968
350.69604 -150.60968 2145.626
351.4021 -150.60968 2145.626
352.41977 -150.61873 2145.677
293.18039 -149.72862 2146.0623
294.55292 -149.5425 2145.55
295.62527 -149.55063 2145.626
296.3313 -149.55063 2145.626
350.69604 -149.55063 2145.626
351.4021 -149.55063 2145.626
352.10437 -149.55124 2145.6301
294.24197 -148.50662 2145.6934
295.62527 -148.49158 2145.626
296.3313 -148.49158 2145.626
297.39038 -148.49158 2145.626
349.41187 -148.4603 2145.4512
350.69604 -148.49159 2145.626
351.41769 -148.48785 2145.5825
351.98849 -148.5201 2145.7795
294.26929 -147.80708 2145.7087
295.62531 -147.43253 2145.626
296.3313 -147.43253 2145.626
297.39038 -147.43253 2145.626
299.10455 -147.39975 2145.5461
349.56125 -147.30699 2145.5654
350.69604 -147.43254 2145.626
351.3847 -147.43512 2145.6526
295.62527 -146.37347 2145.626
296.3313 -146.37347 2145.626
297.39038 -146.37349 2145.626
299.12509 -146.36324 2145.5674
349.64621 -146.37169 2145.6021
350.69608 -146.37349 2145.626
351.35172 -146.37363 2145.6895
295.62527 -145.66745 2145.626
296.33133 -145.66743 2145.626
297.39038 -145.66745 2145.626
299.12357 -145.65005 2145.5508
349.6543 -145.66022 2145.5552
350.69604 -145.66743 2145.626
351.35617 -145.67642 2145.6814
295.67258 -144.62424 2145.7104
296.33133 -144.6084 2145.626
297.39038 -144.60838 2145.626
298.44943 -144.25537 2145.626
299.38724 -144.48949 2145.6194
348.62756 -144.22467 2145.5288
349.63699 -144.6084 2145.626
350.69604 -144.60838 2145.626
351.34378 -144.61951 2145.7068
295.7384 -143.59659 2145.7935
297.39038 -143.54935 2145.626
298.44943 -143.54933 2145.626
299.5101 -143.55009 2145.6331
300.38272 -143.48027 2145.3586
348.01431 -143.51259 2145.4558
348.57385 -143.55177 2145.6379
349.63702 -143.54935 2145.626
351.28201 -143.59833 2145.8
295.90588 -142.575 2145.9163
297.02341 -142.48093 2145.554
298.44943 -142.49028 2145.626
299.62616 -142.60797 2145.6262
300.56754 -142.4903 2145.6262
347.91925 -142.48634 2145.5625
348.57794 -142.49028 2145.626
349.65414 -142.48181 2145.5408
351.05545 -142.63258 2146.0217
297.07263 -141.45847 2145.699
298.4494 -141.43123 2145.626
299.86151 -141.43123 2145.626
300.56754 -141.43124 2145.626
347.90234 -141.42738 2145.5613
348.57794 -141.43121 2145.626
349.96774 -141.43958 2145.6667
297.28391 -140.50375 2145.9368
298.4494 -140.37218 2145.626
299.62616 -140.2545 2145.626
300.56754 -140.37218 2145.626
347.87192 -140.37218 2145.626
348.57794 -140.37218 2145.626
349.93628 -140.74394 2145.7205
298.4494 -139.31313 2145.626
299.50848 -139.31311 2145.626
300.56754 -139.31313 2145.626
347.87192 -139.31313 2145.626
348.57797 -139.31313 2145.626
298.47626 -138.62263 2145.7058
299.50848 -138.60709 2145.626
300.56754 -138.60709 2145.626
301.62659 -138.60709 2145.626
346.53967 -138.58765 2145.521
347.51886 -138.60709 2145.626
348.57794 -138.60709 2145.626
298.53308 -137.9455 2145.7766
299.62616 -137.66571 2145.626
300.56754 -137.54803 2145.626
301.62064 -137.54446 2145.6011
346.51541 -137.5351 2145.5378
347.51886 -137.54803 2145.626
348.57794 -137.54803 2145.626
299.88345 -136.49545 2145.7378
300.56754 -136.48897 2145.626
301.62659 -136.48898 2145.626
302.66174 -136.46973 2145.5115
303.22867 -136.39621 2145.4148
346.49179 -136.4799 2145.5515
347.51889 -136.48898 2145.626
348.50885 -136.5112 2145.7402
299.94196 -135.4446 2145.7959
300.56757 -135.42993 2145.626
301.62659 -135.42993 2145.6262
302.68564 -135.42993 2145.6262
303.35156 -135.41118 2145.5637
346.45984 -135.42993 2145.626
347.5639 -135.41653 2145.5601
348.43326 -135.83228 2145.7998
299.96219 -134.39503 2145.7661
300.56107 -134.36662 2145.585
301.62659 -134.37088 2145.626
302.68567 -134.37088 2145.626
303.38641 -134.36893 2145.6116
303.95444 -134.31952 2145.3701
346.45984 -134.37088 2145.6262
347.51025 -134.37344 2145.6367
299.99716 -133.7383 2145.8047
300.5708 -133.66733 2145.6338
301.62659 -133.66484 2145.626
302.68564 -133.66484 2145.626
303.39319 -133.66544 2145.6345
304.01895 -133.64331 2145.3477
345.48169 -133.60965 2145.4856
346.45984 -133.66484 2145.6262
347.48047 -133.67467 2145.6731
300.13129 -133.20337 2145.9968
301.7525 -132.72902 2145.6907
302.68564 -132.60577 2145.626
303.39169 -132.60577 2145.626
304.09772 -132.60577 2145.626
345.4039 -132.60352 2145.6184
346.45984 -132.60577 2145.626
347.1571 -132.60735 2145.6367
301.97961 -131.54674 2145.626
302.68564 -131.54674 2145.626
303.39166 -131.54672 2145.626
304.36884 -131.53246 2145.4729
343.80032 -131.4456 2145.2805
344.3689 -131.52478 2145.5049
345.36334 -131.57671 2145.7937
346.48447 -131.53065 2145.5308
347.09253 -131.57298 2145.7263
302.68564 -130.48767 2145.626
303.39169 -130.48767 2145.626
304.4314 -130.47691 2145.5728
343.63568 -130.48767 2145.626
344.34174 -130.48767 2145.626
345.40076 -130.48767 2145.626
346.43365 -130.50453 2145.6772
347.04025 -130.92009 2145.8098
302.72449 -129.43622 2145.7078
303.39166 -129.42863 2145.626
304.45074 -129.42862 2145.626
306.29382 -129.28801 2145.2715
343.63571 -129.42862 2145.626
344.34174 -129.42862 2145.626
345.40079 -129.42863 2145.626
302.89124 -128.40678 2145.8743
303.38647 -128.36761 2145.6057
304.44742 -128.36777 2145.5969
305.50977 -128.36957 2145.626
306.50595 -128.33946 2145.533
343.63568 -128.36957 2145.626
344.34174 -128.36957 2145.626
345.25845 -128.49231 2145.6804
303.42102 -127.32492 2145.6729
304.42404 -127.29471 2145.5198
305.50977 -127.31052 2145.626
306.56235 -127.30723 2145.6111
343.63571 -127.31052 2145.626
344.34174 -127.31052 2145.626
345.04776 -127.31052 2145.626
303.51248 -126.66997 2145.7769
304.41138 -126.58994 2145.5071
305.50977 -126.60448 2145.626
306.56686 -126.60352 2145.616
307.38263 -126.53365 2145.3286
342.92966 -126.60448 2145.626
343.63571 -126.60449 2145.626
344.34174 -126.60448 2145.626
344.99738 -126.61411 2145.7241
303.57306 -125.99297 2145.8325
304.54999 -125.65454 2145.5833
305.50977 -125.54543 2145.626
306.56885 -125.54543 2145.626
307.56522 -125.52425 2145.5168
342.98251 -125.89729 2145.5349
343.63568 -125.54543 2145.6262
344.34174 -125.54543 2145.6262
305.52063 -124.49496 2145.6926
306.56885 -124.48638 2145.626
307.60995 -124.47539 2145.5417
343.63571 -124.48637 2145.6262
344.34174 -124.48637 2145.6262
305.57465 -123.45491 2145.7568
306.56885 -123.42733 2145.626
307.62787 -123.42732 2145.626
308.33392 -123.0743 2145.626
343.63409 -123.42736 2145.627
344.28171 -123.79008 2145.677
305.62976 -122.40142 2145.8232
306.56885 -122.36828 2145.626
307.62787 -122.36827 2145.626
308.33392 -122.36827 2145.626
309.62628 -122.31146 2145.4932
343.63571 -122.36827 2145.626
306.56885 -121.66223 2145.626
307.6279 -121.66223 2145.626
308.33685 -121.66331 2145.6455
309.3118 -121.61843 2145.4866
343.63571 -121.66223 2145.626
306.62222 -120.62243 2145.7864
307.6279 -120.60318 2145.626
308.33392 -120.60318 2145.626
309.27936 -120.48714 2145.6392
310.22806 -120.16763 2145.3342
343.63568 -120.60318 2145.626
306.97818 -119.55762 2145.7327
307.62787 -119.54414 2145.626
308.33392 -119.54413 2145.626
309.3967 -119.54581 2145.6501
310.33353 -119.52586 2145.4546
340.83881 -119.48282 2145.5598
343.62991 -119.54803 2145.6321
307.03922 -118.49942 2145.7786
307.62845 -118.48531 2145.6289
308.33392 -118.48508 2145.626
309.39297 -118.48508 2145.626
310.41388 -118.47089 2145.4856
340.45749 -118.48502 2145.6267
343.43719 -119.08076 2145.9392
307.10547 -117.47149 2145.8484
308.33389 -117.42603 2145.626
309.39297 -117.42602 2145.626
310.45203 -117.42603 2145.626
340.45047 -117.42668 2145.6343
307.32285 -116.50177 2146.0615
308.3299 -116.36415 2145.6033
309.39297 -116.36697 2145.626
310.45203 -116.36697 2145.626
311.46329 -115.99281 2145.4951
340.4249 -116.37069 2145.6655
341.51758 -116.01395 2145.626
342.11752 -116.00085 2145.7727
308.37378 -115.33322 2145.7168
309.746 -115.30791 2145.626
310.45203 -115.30791 2145.626
311.51111 -115.30791 2145.626
339.53778 -115.23322 2145.4482
340.39825 -115.3275 2145.7468
308.39835 -114.63227 2145.7217
309.746 -114.60188 2145.626
310.45206 -114.60188 2145.626
311.51108 -114.60188 2145.626
313.02057 -114.47735 2145.3264
339.42236 -114.59068 2145.595
340.4585 -114.60188 2145.626
309.74597 -113.54283 2145.626
310.45203 -113.54283 2145.626
311.51108 -113.54283 2145.626
313.15469 -113.47083 2145.4717
339.39948 -113.54283 2145.626
340.45853 -113.54282 2145.626
341.43661 -113.92119 2145.7954
309.77777 -112.49386 2145.7522
310.45203 -112.48377 2145.626
311.51108 -112.48377 2145.626
312.59106 -112.4983 2145.7068
313.25955 -112.47431 2145.592
338.74826 -112.4708 2145.5256
339.39948 -112.48378 2145.626
340.45853 -112.48377 2145.626
309.8093 -111.42405 2145.7278
310.45203 -111.42473 2145.626
311.51108 -111.42472 2145.626
312.57013 -111.42473 2145.626
313.63647 -111.42942 2145.6548
314.48911 -111.34579 2145.4009
338.69342 -111.42473 2145.6262
339.39948 -111.42473 2145.626
340.45853 -111.42473 2145.626
309.84979 -110.36732 2145.7632
311.51111 -110.36568 2145.626
312.57013 -110.36567 2145.626
313.62921 -110.36566 2145.626
314.6301 -110.34754 2145.532
338.69348 -110.36568 2145.626
339.39948 -110.36568 2145.626
340.10553 -110.36567 2145.626
309.86832 -109.68167 2145.7764
311.15805 -109.65964 2145.626
312.57016 -109.65964 2145.626
313.62918 -109.65964 2145.626
314.6474 -109.64725 2145.5405
338.03876 -109.64927 2145.5117
338.69342 -109.65964 2145.626
339.44025 -109.6465 2145.5212
340.05319 -109.67979 2145.7444
309.91199 -108.64288 2145.7886
311.15808 -108.60059 2145.626
312.57013 -108.60059 2145.626
313.62918 -108.60058 2145.626
314.68823 -108.60059 2145.626
337.70056 -108.5749 2145.5066
338.69342 -108.60058 2145.626
339.42935 -108.59301 2145.5835
339.98688 -108.98734 2145.7976
310.0726 -107.75615 2145.9788
311.15964 -107.5431 2145.6353
312.57013 -107.54153 2145.626
313.62921 -107.54153 2145.626
314.68823 -107.54153 2145.626
316.01898 -107.47354 2145.4692
337.65518 -107.53589 2145.5933
338.69345 -107.54153 2145.626
339.39066 -107.54346 2145.6367
311.20883 -106.87754 2145.7327
312.57016 -106.48248 2145.626
313.62918 -106.48248 2145.626
314.68823 -106.48248 2145.626
316.10995 -106.48981 2145.6528
317.3096 -105.99451 2145.3281
336.73953 -106.07374 2145.4043
337.58417 -106.50105 2145.72
338.69345 -106.48248 2145.626
339.3233 -106.49982 2145.729
312.59918 -105.44387 2145.7451
313.62918 -105.42342 2145.626
314.68823 -105.42342 2145.626
315.39429 -105.42342 2145.626
316.10031 -105.42342 2145.626
317.40475 -105.38889 2145.4834
336.66132 -105.39909 2145.5095
337.6344 -105.42342 2145.626
338.70499 -105.4199 2145.5837
339.25507 -105.43418 2145.8115
312.66568 -104.77283 2145.832
313.74689 -104.48205 2145.626
314.68823 -104.36436 2145.626
315.39429 -104.36436 2145.626
316.45331 -104.36436 2145.626
317.44641 -104.35338 2145.5242
336.62756 -104.35735 2145.5542
337.6344 -104.36436 2145.626
338.66998 -104.37139 2145.6726
314.00494 -103.32084 2145.74
314.68823 -103.30532 2145.626
315.39429 -103.30531 2145.626
316.45331 -103.30531 2145.626
317.44022 -103.28673 2145.4377
336.60022 -103.30103 2145.5911
337.6344 -103.30532 2145.626
338.63242 -103.32404 2145.7102
314.02988 -102.6292 2145.7236
314.69156 -102.60147 2145.6479
315.39426 -102.59928 2145.626
316.45331 -102.59928 2145.626
317.47253 -102.58569 2145.4478
336.58163 -102.59754 2145.6152
337.66574 -102.58549 2145.5352
338.53772 -102.67313 2145.8059
314.241 -101.67904 2145.9514
315.38947 -101.53679 2145.5974
316.45331 -101.54022 2145.626
317.51239 -101.54022 2145.626
335.65836 -101.49416 2145.4541
336.54251 -101.55387 2145.7139
337.30972 -101.52923 2145.583
315.4382 -100.50891 2145.7151
316.45331 -100.48117 2145.626
317.51236 -100.48117 2145.626
318.16232 -100.46582 2145.4138
335.54984 -100.47278 2145.585
336.57535 -100.48118 2145.626
337.25455 -100.49009 2145.6562
315.50305 -99.836105 2145.8186
316.57101 -99.539795 2145.626
317.51239 -99.422119 2145.626
318.20862 -99.416695 2145.5808
335.53256 -99.418175 2145.6057
336.57532 -99.422119 2145.626
337.22565 -99.790466 2145.689
316.80634 -98.363068 2145.626
317.51239 -98.363068 2145.626
318.21844 -98.363068 2145.626
320.09311 -98.166412 2145.2712
335.5163 -98.363068 2145.626
336.57535 -98.36306 2145.626
316.80634 -97.657028 2145.626
317.51239 -97.657036 2145.626
318.21841 -97.657028 2145.6262
319.64236 -97.669273 2145.6577
320.26404 -97.598305 2145.5205
335.5163 -97.657028 2145.626
316.85892 -96.60955 2145.7593
317.51239 -96.597977 2145.626
318.4538 -96.480309 2145.626
319.64035 -96.601112 2145.6973
320.33804 -96.598434 2145.6284
320.78775 -96.196907 2145.3787
334.45724 -96.597977 2145.626
335.52859 -96.593681 2145.6121
316.88913 -95.568962 2145.7419
317.48907 -95.526855 2145.5603
318.57141 -95.538925 2145.626
319.63583 -95.539322 2145.6724
320.36478 -95.542877 2145.6758
320.82614 -95.523415 2145.3674
333.81055 -95.527161 2145.5605
334.45724 -95.538925 2145.626
335.49286 -95.543495 2145.6519
317.01376 -94.658585 2145.916
317.56641 -94.528679 2145.7346
318.57574 -94.4842 2145.6558
319.63464 -94.48114 2145.6599
320.36774 -94.489922 2145.7024
320.93799 -94.460991 2145.4902
333.78812 -94.470276 2145.5823
334.45721 -94.479874 2145.626
335.49789 -94.480965 2145.6497
319.63049 -93.420815 2145.626
320.36481 -93.426651 2145.7319
321.26038 -93.407242 2145.4692
333.73761 -93.424995 2145.6511
334.45724 -93.420822 2145.626
335.46054 -93.422577 2145.7061
319.63049 -92.361763 2145.626
320.33652 -92.361763 2145.626
321.38428 -92.358665 2145.5986
332.53659 -92.278931 2145.3789
333.5094 -92.247589 2145.6562
334.45721 -92.361771 2145.626
335.12848 -92.365112 2145.6853
319.68124 -91.30822 2145.7566
320.33652 -91.302711 2145.626
321.39557 -91.302711 2145.626
332.42429 -91.279091 2145.4834
333.39819 -91.302711 2145.626
334.45724 -91.302711 2145.626
335.10114 -91.320076 2145.7229
319.72214 -90.625107 2145.7446
320.27707 -90.570984 2145.5164
321.39557 -90.59668 2145.626
322.45465 -90.596672 2145.626
332.41666 -90.591042 2145.4956
333.39819 -90.59668 2145.626
334.46524 -90.593643 2145.5938
335.0372 -90.636528 2145.8074
319.86856 -89.978058 2145.9102
320.36066 -89.548294 2145.6616
321.3389 -89.504463 2145.4373
322.45462 -89.537621 2145.626
323.40381 -89.487999 2145.4758
332.3949 -89.526108 2145.5435
333.39819 -89.537628 2145.626
334.43146 -89.548592 2145.6772
320.52423 -88.537773 2145.8635
321.33301 -88.459427 2145.4756
322.47092 -88.483597 2145.7126
323.46451 -88.464699 2145.5574
332.32364 -88.484695 2145.646
333.42676 -88.461266 2145.5459
334.33658 -88.541306 2145.7827
320.61853 -87.475311 2145.9541
321.37411 -87.415703 2145.5674
322.4595 -87.420937 2145.6614
323.54868 -87.429909 2145.6746
324.04446 -86.95063 2145.1438
331.16211 -86.972893 2145.3738
331.6499 -87.060379 2145.6106
332.28531 -87.447914 2145.7019
333.3595 -87.444458 2145.689
321.39725 -86.360878 2145.6326
322.4559 -86.360718 2145.636
323.51035 -86.35907 2145.6157
331.03104 -86.328979 2145.5195
331.58875 -86.377464 2145.7173
332.29556 -86.382202 2145.7476
321.12518 -85.701698 2145.7422
322.44485 -85.646194 2145.5598
323.49951 -85.64917 2145.521
324.42459 -85.606743 2145.1489
331.63312 -85.654434 2145.626
332.33914 -85.654427 2145.626
321.23172 -85.0867 2145.9077
322.43213 -84.581024 2145.5759
323.51367 -84.595375 2145.626
324.55695 -84.581444 2145.5396
330.95181 -84.59388 2145.6013
331.63309 -84.595375 2145.626
332.33911 -84.595375 2145.626
322.55957 -83.589729 2145.7837
323.51367 -83.536331 2145.626
324.57275 -83.536324 2145.626
330.93622 -83.533699 2145.6047
331.63309 -83.536324 2145.626
332.33914 -83.536324 2145.6262
323.51367 -82.477272 2145.626
324.57275 -82.477264 2145.626
325.99124 -82.482864 2145.6465
326.68375 -82.112953 2145.6033
327.30975 -82.289238 2145.4065
330.57404 -82.477272 2145.626
331.66254 -82.470306 2145.593
323.8667 -81.418213 2145.626
324.57272 -81.418221 2145.626
325.63177 -81.418213 2145.626
327.40796 -81.431114 2145.6677
328.82367 -81.383354 2145.4922
330.57404 -81.418221 2145.626
331.57034 -81.443512 2145.709
323.9371 -80.37336 2145.7639
324.57272 -80.359161 2145.626
325.63177 -80.359169 2145.626
326.69086 -80.359161 2145.626
327.39688 -80.359169 2145.626
328.80896 -80.359161 2145.626
330.57404 -80.359169 2145.626
331.52582 -80.756126 2145.7727
323.97476 -79.318993 2145.7786
324.56146 -79.298714 2145.5886
325.63177 -79.30011 2145.626
326.69086 -79.300102 2145.626
327.39688 -79.300117 2145.626
328.45593 -79.30011 2145.626
330.57404 -79.30011 2145.626
324.08713 -78.619308 2145.8872
325.63177 -78.59407 2145.626
326.69086 -78.59407 2145.626
327.39688 -78.594078 2145.626
328.45593 -78.594078 2145.626
329.51498 -78.594078 2145.626
330.57404 -78.59407 2145.626
324.15598 -77.952095 2145.9558
325.64215 -77.539536 2145.7302
326.69086 -77.535019 2145.626
327.39688 -77.535019 2145.626
328.45593 -77.535019 2145.626
329.51498 -77.535019 2145.626
330.57404 -77.535019 2145.626
324.27139 -76.675545 2146.0918
325.22394 -76.447968 2145.4907
326.69083 -76.475967 2145.626
327.39688 -76.475967 2145.626
328.45593 -76.475967 2145.626
329.51501 -76.475967 2145.626
330.86172 -76.483292 2145.7393
324.37823 -76.226868 2146.3191
326.69083 -75.416916 2145.626
327.39688 -75.416916 2145.626
328.45593 -75.416916 2145.626
329.51498 -75.416916 2145.626
330.67838 -75.537483 2145.6567
326.69086 -74.357864 2145.626
327.39688 -74.357864 2145.626
328.45593 -74.357857 2145.626
329.51459 -74.35817 2145.6282
330.7435 -74.462921 2145.8882
326.69083 -73.651825 2145.626
328.45593 -73.651825 2145.626
329.48563 -73.675308 2145.7119
326.73969 -72.610153 2145.7393
327.39685 -72.945793 2145.626
328.10291 -72.592773 2145.626
329.40714 -72.655373 2145.7966
326.96222 -71.623642 2145.8833
328.08975 -71.51963 2145.5425
328.05505 -70.464661 2145.5933
328.24399 -69.454063 2145.6875
328.19034 -68.444702 2145.7083
368.40964 -199.5513 2148.0498
369.46985 -199.5513 2148.0498
367.34933 -198.13763 2148.0498
368.40961 -198.49104 2148.0498
369.46985 -198.49104 2148.0498
370.09409 -198.48978 2148.1555
367.34937 -197.43082 2148.0498
368.40961 -197.4308 2148.0498
369.46988 -197.4308 2148.0498
370.07919 -197.45341 2148.1914
367.34937 -196.37054 2148.0498
368.40961 -196.37054 2148.0498
367.34937 -195.3103 2148.0498
368.40442 -195.31232 2148.0618
366.69824 -194.59828 2147.9917
367.34937 -194.60347 2148.0498
368.38727 -194.60631 2148.0857
366.67334 -193.53587 2148.009
367.34937 -193.54321 2148.0498
368.27155 -193.66432 2148.0759
366.62598 -192.48741 2148.0874
367.39679 -192.47089 2147.9412
367.98892 -192.49768 2148.1318
274.75153 -191.06923 2148.0493
365.55444 -191.27968 2147.9214
366.64252 -191.42271 2148.0498
367.37378 -191.41719 2148.0176
367.95071 -191.80988 2148.1658
365.62076 -190.35434 2147.9917
366.64252 -190.36247 2148.0498
367.33395 -190.36426 2148.0671
365.60635 -189.65482 2148.0144
366.64255 -189.65564 2148.0498
367.31207 -189.66344 2148.0959
365.59888 -188.5929 2148.0237
366.64255 -188.59538 2148.0498
367.29507 -188.60808 2148.1072
365.54355 -187.5546 2148.1106
366.66113 -187.52591 2148.0237
367.18982 -187.60191 2148.2385
275.64102 -185.93217 2147.7903
364.17148 -185.98401 2147.7175
364.62677 -186.7655 2147.9417
365.5018 -186.52699 2148.1438
275.68869 -185.23988 2147.7217
276.90686 -185.2849 2147.8069
277.46045 -185.24608 2147.7927
278.02475 -185.23029 2147.6917
364.0051 -185.36777 2147.8762
364.47925 -185.4288 2148.1045
365.55423 -185.42749 2148.1416
275.64648 -184.23846 2147.5894
276.63419 -184.23976 2148.0698
277.51938 -184.3175 2147.9321
278.12643 -184.30884 2147.8733
363.89447 -184.34395 2147.9749
364.41629 -184.37701 2148.2957
365.46448 -184.4722 2148.0498
275.48471 -183.28105 2147.8384
276.52734 -183.29103 2148.0044
277.62512 -183.29729 2148.1355
278.16342 -183.28751 2147.9058
363.84109 -183.29195 2148.0186
364.52203 -183.29414 2148.0498
365.22888 -183.29414 2148.0498
275.46109 -182.58731 2148.0498
276.52136 -182.58731 2148.0498
277.5834 -182.58728 2148.0549
278.14206 -182.57719 2147.7695
363.82166 -182.58685 2148.0398
364.52206 -182.58731 2148.0498
365.22885 -182.58731 2148.0498
275.46109 -181.52707 2148.0498
276.52133 -181.52705 2148.0498
277.56662 -181.52348 2147.9709
278.38376 -181.3727 2147.8208
363.4975 -181.51569 2147.9856
364.52203 -181.52707 2148.0498
365.22885 -181.88048 2148.0498
275.46109 -180.4668 2148.0498
276.5213 -180.46681 2148.0498
277.57852 -180.46494 2148.0083
278.62518 -180.45615 2147.9119
279.51151 -180.38168 2147.7988
363.46179 -180.46681 2148.0498
364.52472 -180.46584 2148.0444
275.46109 -179.40656 2148.0498
276.52133 -179.40656 2148.0498
277.5816 -179.40656 2148.0498
278.64182 -179.40656 2148.0498
279.70209 -179.40656 2148.0498
362.43283 -179.03767 2147.9736
363.46179 -179.40656 2148.0498
364.48611 -179.42239 2148.0967
275.46106 -178.34631 2148.0498
276.5213 -178.34631 2148.0498
277.58157 -178.34631 2148.0498
278.64182 -178.34631 2148.0498
279.70209 -178.34631 2148.0498
361.81149 -178.30202 2147.9055
362.38489 -178.35593 2148.0898
363.50385 -178.32869 2147.9387
364.38922 -178.40771 2148.2236
275.46109 -177.63948 2148.0498
276.1636 -177.64772 2148.1355
277.58347 -177.64897 2148.1934
278.64178 -177.63947 2148.0498
279.70209 -177.63947 2148.0498
361.77032 -177.62607 2147.9519
362.40155 -177.63947 2148.0498
363.49042 -177.63074 2147.9773
275.44699 -176.58218 2148.0815
276.12225 -176.62262 2148.3342
277.5939 -176.97548 2148.3823
278.65353 -176.58592 2148.1746
279.70209 -176.57922 2148.0498
280.37479 -176.56554 2147.9768
281.0188 -176.164 2147.9011
361.73486 -176.58022 2148.0051
362.40155 -176.57922 2148.0498
363.45868 -176.57959 2148.0549
275.46063 -175.51907 2148.0505
276.0289 -175.56834 2148.4292
278.6781 -175.52 2148.2559
279.70209 -175.51898 2148.0498
280.41418 -175.52232 2148.085
281.39304 -175.47633 2147.9404
361.7287 -175.51495 2147.9963
362.40152 -175.51898 2148.0498
363.43307 -175.51775 2148.0945
275.49628 -174.45499 2148.0308
276.02112 -174.53485 2148.2959
278.67316 -174.4711 2148.1331
279.70209 -174.45871 2148.0498
280.40891 -174.45874 2148.0498
281.49326 -174.46695 2148.0945
282.33261 -173.99673 2147.7561
361.70822 -174.45532 2148.0107
362.40155 -174.45874 2148.0498
363.42252 -174.46027 2148.1069
275.48108 -173.39642 2148.04
278.74915 -173.46143 2148.2378
279.69894 -173.39644 2148.0286
280.40891 -173.39847 2148.0498
281.47357 -173.39996 2148.0798
282.45026 -173.34734 2147.8599
361.0777 -173.37563 2147.8904
361.6947 -173.39847 2148.0498
362.44156 -173.38524 2147.9189
363.36505 -173.4232 2148.1792
275.46106 -172.69164 2148.0498
279.1123 -172.76299 2148.2266
279.71225 -172.69797 2148.0784
280.40891 -172.69165 2148.0498
281.46918 -172.69165 2148.0498
282.52118 -172.68475 2148.0142
361.04465 -172.67233 2147.9382
361.6947 -172.69165 2148.0498
362.46671 -172.67633 2147.9341
363.48068 -172.81583 2148.4631
275.38672 -171.64037 2148.0737
279.75735 -171.6628 2148.1355
280.40887 -171.63139 2148.0498
281.46918 -171.63139 2148.0498
282.52942 -171.63141 2148.0498
283.14386 -171.61836 2147.9104
360.65012 -171.62288 2148.0215
361.6947 -171.63141 2148.0498
362.43951 -171.62012 2147.9988
275.46106 -170.57115 2148.0498
281.46915 -170.57114 2148.0498
282.52939 -170.57115 2148.0498
283.20352 -170.56093 2147.9639
359.65158 -170.5188 2147.906
360.5957 -170.59393 2148.1782
362.3522 -170.59483 2148.1255
275.46106 -169.51089 2148.0498
281.46918 -169.51089 2148.0498
282.52942 -169.51089 2148.0498
283.23624 -169.51089 2148.0498
358.86737 -169.51089 2148.0498
359.57419 -169.51089 2148.0498
360.63446 -169.51089 2148.0498
362.29932 -169.9292 2148.2109
275.46106 -168.45064 2148.0498
281.50513 -168.45059 2148.1401
282.52939 -168.45065 2148.0498
283.58966 -168.45065 2148.0498
284.54941 -168.41129 2147.9167
358.90302 -168.44659 2148.0002
359.57422 -168.45065 2148.0498
360.63443 -168.45064 2148.0498
275.46228 -167.39058 2148.0496
281.50513 -167.3922 2148.1113
282.52942 -167.39041 2148.0498
283.58966 -167.39038 2148.0498
284.60278 -167.37312 2147.9797
358.89941 -167.38773 2147.9858
359.57422 -167.39041 2148.0498
360.63446 -167.3904 2148.0498
281.5365 -166.35023 2148.1509
282.52792 -166.3293 2148.0391
283.58966 -166.33014 2148.0498
284.64468 -166.3282 2148.0405
358.86737 -166.33014 2148.0498
359.57419 -166.33015 2148.0498
360.63446 -166.33014 2148.0498
281.39349 -165.74644 2148.3574
282.52335 -165.62093 2148.0298
283.58966 -165.62332 2148.0498
284.64154 -165.6201 2148.0242
285.21536 -165.56409 2147.834
358.86737 -165.62331 2148.0498
359.57419 -165.62332 2148.0498
360.63446 -165.62332 2148.0498
282.54211 -164.56822 2148.0747
283.70749 -164.68088 2148.0498
284.65286 -164.5647 2148.0723
285.33578 -164.54906 2147.926
285.9632 -164.47963 2147.6038
358.86737 -164.56306 2148.0498
359.57422 -164.56308 2148.0498
360.45773 -164.69753 2148.1479
282.61462 -163.51923 2148.187
283.94305 -163.50282 2148.0498
284.6499 -163.50281 2148.0498
285.35675 -163.50282 2148.0498
286.06357 -163.50282 2148.0498
358.51398 -163.50282 2148.0498
359.57419 -163.50282 2148.0498
282.66742 -162.81589 2148.2383
283.94308 -162.44257 2148.0498
284.6499 -162.44257 2148.0498
285.35675 -162.44257 2148.0498
286.06357 -162.44257 2148.0498
287.38553 -162.41325 2147.916
358.51395 -162.44257 2148.0498
359.58145 -162.4417 2148.0413
282.73102 -161.44727 2148.3008
283.94305 -161.38231 2148.0498
284.6499 -161.38232 2148.0498
285.35675 -161.38232 2148.0498
286.06357 -161.38231 2148.0498
287.42407 -161.35905 2147.9587
358.51398 -161.38232 2148.0498
359.57419 -161.38232 2148.0498
282.79803 -160.91086 2148.4661
283.9545 -160.68245 2148.1013
285.35672 -160.67548 2148.0498
286.0636 -160.67549 2148.0498
287.44974 -160.66208 2147.9792
358.51398 -160.67549 2148.0498
359.56882 -160.67644 2148.0542
285.35675 -159.61523 2148.0498
286.41699 -159.61523 2148.0498
287.4736 -159.61388 2148.03
288.66736 -159.55441 2147.8159
356.85535 -159.56664 2147.9199
358.51398 -159.61523 2148.0498
359.43362 -159.67456 2148.2026
285.35675 -158.55498 2148.0498
286.41699 -158.55499 2148.0498
287.47723 -158.55499 2148.0498
288.51703 -158.55029 2148.0195
356.75421 -158.55193 2148.0413
358.19629 -158.54378 2147.9658
285.39688 -157.50125 2148.1516
286.41699 -157.49474 2148.0498
287.47723 -157.49472 2148.0498
288.5253 -157.48994 2148.0271
356.52701 -157.36908 2148.0239
357.4537 -157.49474 2148.0498
358.146 -157.49994 2148.0723
285.41129 -156.46025 2148.1257
286.76218 -156.42517 2147.9944
287.47723 -156.43448 2148.0498
288.56662 -156.45247 2148.1685
289.49792 -156.36961 2147.896
355.49335 -156.35069 2147.845
356.35297 -156.45918 2148.1597
357.4537 -156.43449 2148.0498
358.11066 -156.44872 2148.1204
285.54968 -155.88394 2148.3042
286.81714 -155.42725 2148.1729
287.47723 -155.72766 2148.0498
288.53748 -155.37424 2148.0498
289.6059 -155.38043 2148.0776
290.19266 -155.32092 2147.8962
355.38345 -155.35048 2147.9778
356.39343 -155.37424 2148.0498
358.05597 -155.78186 2148.2053
288.53748 -154.314 2148.0498
289.59772 -154.31398 2148.0498
290.26624 -154.30525 2147.9775
355.33502 -154.31346 2148.0466
356.39343 -154.31398 2148.0498
288.53748 -153.60716 2148.0498
289.59772 -153.60716 2148.0498
290.30457 -153.60715 2148.0498
355.33322 -153.60715 2148.0498
356.39343 -153.60715 2148.0498
288.53748 -152.54691 2148.0498
289.59775 -152.54691 2148.0498
290.30457 -152.54691 2148.0498
354.62634 -152.54691 2148.0498
355.33319 -152.54691 2148.0498
356.39343 -152.54691 2148.0498
288.53748 -151.48666 2148.0498
289.59772 -151.48665 2148.0498
290.30457 -151.48666 2148.0498
354.62637 -151.48666 2148.0498
355.33322 -151.48665 2148.0498
356.04004 -151.48665 2148.0498
288.59009 -150.43123 2148.1379
289.59772 -150.42639 2148.0498
290.30457 -150.42642 2148.0498
291.36404 -150.42595 2148.0483
292.22443 -150.28181 2147.7734
353.66232 -150.04742 2147.896
354.62637 -150.42639 2148.0498
355.33319 -150.42641 2148.0498
356.04004 -150.42641 2148.0498
288.68762 -149.4104 2148.2583
289.59537 -149.36499 2148.0356
290.30457 -149.36615 2148.0498
291.36685 -149.36725 2148.0652
292.36783 -149.31892 2147.8972
353.62714 -149.3447 2147.9392
354.62634 -149.36617 2148.0498
355.33319 -149.36617 2148.0498
356.04004 -149.36617 2148.0498
289.00262 -148.71121 2148.2366
289.60275 -148.66167 2148.0647
290.30457 -148.65932 2148.0498
291.37003 -148.66388 2148.0979
292.41824 -148.65384 2148.0125
292.93494 -148.58951 2147.7913
353.59207 -148.64841 2147.9868
354.62637 -148.65933 2148.0498
355.33319 -148.65932 2148.0498
356.04001 -148.65932 2148.0498
289.62704 -147.61287 2148.0955
290.30457 -147.59906 2148.0498
291.36481 -147.59909 2148.0498
292.42505 -147.59906 2148.0498
293.06104 -147.59102 2147.9365
352.63062 -147.2043 2147.8699
353.56067 -147.6011 2148.0747
354.62637 -147.59909 2148.0498
355.3298 -147.60045 2148.0635
355.9342 -147.978 2148.2458
289.67236 -146.57446 2148.1538
291.36481 -146.53883 2148.0498
292.42505 -146.53883 2148.0498
293.10486 -146.53589 2147.9924
352.57669 -146.52896 2147.9446
353.5661 -146.53882 2148.0498
354.6264 -146.53882 2148.0498
355.27762 -146.55678 2148.1814
291.36481 -145.47858 2148.0498
292.42508 -145.47858 2148.0498
293.36752 -145.36078 2148.0498
352.56876 -145.4762 2147.9531
353.56613 -145.47858 2148.0498
354.62985 -145.47673 2148.0347
355.21124 -145.5184 2148.1953
291.36481 -144.41833 2148.0498
292.42508 -144.41832 2148.0498
293.48529 -144.41832 2148.0498
352.53928 -144.41179 2148.0012
353.5661 -144.41832 2148.0498
354.59247 -144.43182 2148.1128
291.76593 -143.72945 2148.1995
292.42572 -143.35835 2148.0532
293.48532 -143.35806 2148.0498
294.5188 -143.34328 2148.0024
295.08981 -142.84425 2147.7788
352.48755 -143.3656 2148.0723
353.56613 -143.35806 2148.0498
354.55142 -143.74626 2148.1479
292.44876 -142.30466 2148.1221
293.48529 -142.29782 2148.0498
294.5527 -142.30278 2148.0767
295.1853 -142.24693 2147.8779
351.44333 -142.1824 2147.6548
352.45209 -142.32121 2148.1316
353.20715 -142.30031 2148.0642
291.91684 -141.65463 2148.3064
292.44186 -141.59529 2148.0808
293.48529 -141.59099 2148.0498
294.54681 -141.5921 2148.0627
295.53824 -141.55804 2147.9375
351.47922 -141.58159 2148.0115
352.45523 -141.60797 2148.1846
353.1792 -141.60126 2148.1006
292.44928 -140.53925 2148.0847
293.48532 -140.53073 2148.0498
294.54556 -140.53075 2148.0498
295.64084 -140.54005 2148.1292
296.53275 -140.5029 2147.8882
351.44897 -140.52972 2148.0449
352.50586 -140.53073 2148.0498
353.13657 -140.18645 2148.1367
292.60223 -139.54584 2148.2678
293.83804 -139.47014 2148.0454
294.54556 -139.4705 2148.0498
295.62433 -139.47774 2148.1499
296.6098 -139.43599 2147.7991
351.44562 -139.47049 2148.0498
352.50903 -139.46892 2148.0444
293.85129 -138.76849 2148.1086
294.54556 -138.41025 2148.0498
295.6058 -138.41025 2148.0498
296.66608 -138.41025 2148.0498
350.38538 -138.41025 2148.0498
351.49286 -138.39183 2148.0027
352.409 -138.8129 2148.1533
293.92316 -137.40869 2148.219
294.54556 -137.34999 2148.0498
295.6058 -137.34999 2148.0498
296.66608 -137.34999 2148.0498
297.30228 -137.31448 2147.8896
350.38538 -137.35001 2148.0498
351.46149 -137.34534 2148.0349
294.54556 -136.64316 2148.0498
295.60583 -136.64316 2148.0498
296.66608 -136.64317 2148.0498
297.35153 -136.62988 2147.9519
350.38538 -136.64316 2148.0498
351.42545 -136.64966 2148.0757
295.60629 -135.58313 2148.0515
296.66608 -135.58292 2148.0498
297.37292 -135.58292 2148.0498
298.72556 -135.56468 2147.9656
349.11319 -135.16985 2147.8652
349.66086 -135.23582 2148.0774
350.38538 -135.58292 2148.0498
351.37851 -135.60002 2148.1401
295.62363 -134.52464 2148.0803
296.66608 -134.52266 2148.0498
297.37289 -134.52267 2148.0498
298.76019 -134.51038 2148.0044
349.05276 -134.49741 2147.9336
349.65021 -134.53148 2148.1392
350.38538 -134.52267 2148.0498
351.06702 -134.52609 2148.1211
295.65936 -133.4631 2148.1379
296.66608 -133.46242 2148.0498
297.37292 -133.4624 2148.0498
298.47055 -133.48174 2148.1406
299.34592 -133.37643 2147.8726
348.80148 -133.33838 2147.9421
349.67853 -133.4624 2148.0498
350.38538 -133.4624 2148.0498
351.0365 -133.46303 2148.1521
295.67911 -132.43469 2148.1672
296.65622 -132.39233 2147.9844
297.37289 -132.40218 2148.0498
298.435 -132.40332 2148.0674
299.47394 -132.38791 2148.0107
300.02557 -132.31998 2147.8435
348.67581 -132.3914 2147.9497
349.67856 -132.40216 2148.0498
350.41272 -132.39455 2147.9597
351.00946 -132.41978 2148.1785
295.75772 -131.83693 2148.2869
296.67096 -131.69983 2148.0623
298.43317 -131.69534 2148.0498
299.49652 -131.69759 2148.0688
300.13272 -131.65321 2147.824
348.64508 -131.68808 2148.0049
349.71002 -131.67731 2147.905
350.38913 -131.69377 2148.0444
350.93921 -131.76186 2148.2444
296.73434 -130.66853 2148.144
298.43314 -130.63509 2148.0498
299.49341 -130.63509 2148.0498
300.20026 -130.63507 2148.0498
347.69235 -130.21472 2147.8599
348.59137 -130.64502 2148.1028
349.70438 -130.62198 2147.9932
350.30743 -131.02269 2148.1575
298.43317 -129.57483 2148.0498
299.49341 -129.57483 2148.0498
300.20023 -129.57483 2148.0498
347.58926 -129.55737 2147.9995
348.61829 -129.57483 2148.0498
349.65231 -129.5889 2148.0864
296.96884 -128.57169 2148.3818
298.43317 -128.51459 2148.0498
299.49341 -128.51459 2148.0498
300.20026 -128.51459 2148.0498
301.53662 -128.46976 2147.8845
346.91086 -128.14423 2147.9229
347.55804 -128.51459 2148.0498
348.50049 -128.63239 2148.0498
349.54947 -128.21791 2148.2493
298.43027 -127.45316 2148.0405
299.49341 -127.45433 2148.0498
300.20023 -127.45433 2148.0498
301.61157 -127.45273 2148.0374
302.60425 -127.2431 2147.5574
346.8512 -127.45434 2148.0498
347.55804 -127.45433 2148.0498
348.26489 -127.45434 2148.0498
298.19711 -126.45568 2148.2747
299.49341 -126.39409 2148.0498
300.55365 -126.39409 2148.0498
301.61389 -126.39407 2148.0498
302.78516 -126.32706 2147.7554
346.63605 -126.27457 2148.0134
347.55804 -126.39409 2148.0498
348.26486 -126.39409 2148.0498
299.5455 -125.36358 2148.2275
300.55438 -125.33437 2148.0562
301.61389 -125.33383 2148.0498
302.31589 -125.33086 2148.031
302.9433 -125.29515 2147.8918
346.49777 -125.33383 2148.0498
347.55804 -125.33383 2148.0498
348.26486 -125.33383 2148.0498
299.60428 -124.65954 2148.2556
300.90707 -124.62701 2148.0498
301.61389 -124.627 2148.0498
302.31757 -124.6247 2148.02
303.00064 -124.60675 2147.8428
346.4978 -124.627 2148.0498
347.55804 -124.62701 2148.0498
348.23065 -124.63265 2148.1174
299.65512 -123.59027 2148.2356
300.90707 -123.56676 2148.0498
301.61389 -123.56676 2148.0498
302.32074 -123.56676 2148.0498
303.26318 -123.44896 2148.0498
304.33261 -123.17705 2147.8811
346.4978 -123.56676 2148.0498
347.55804 -123.56676 2148.0498
348.22116 -123.57719 2148.1079
299.6843 -122.55192 2148.2661
300.90707 -122.5065 2148.0498
301.61389 -122.5065 2148.0498
302.32074 -122.50651 2148.0498
303.38098 -122.5065 2148.0498
304.36954 -122.48394 2147.9211
344.83975 -122.45998 2147.9106
346.53659 -122.48562 2147.8997
347.53644 -122.51949 2148.0857
348.04001 -122.58854 2148.2769
299.77945 -121.91688 2148.3906
300.89627 -121.43787 2148.02
302.32074 -121.44624 2148.0498
303.38098 -121.44626 2148.0498
304.42249 -121.43867 2147.9849
344.76474 -121.43731 2148.01
345.43756 -121.09284 2148.0498
346.51596 -121.43686 2148.0137
300.97589 -120.44537 2148.2041
302.32074 -120.386 2148.0498
303.38098 -120.38601 2148.0498
304.44122 -120.386 2148.0498
344.75381 -120.37979 2148.0183
345.43753 -120.386 2148.0498
346.46994 -120.39912 2148.1045
302.32074 -119.67917 2148.0498
303.38098 -119.67917 2148.0498
304.44122 -119.67918 2148.0498
305.75763 -119.63168 2147.9177
344.73328 -119.67848 2148.0464
345.43753 -119.67918 2148.0498
346.4635 -119.68631 2148.0994
302.32074 -118.61893 2148.0498
303.38098 -118.61893 2148.0498
304.44122 -118.61893 2148.0498
305.82501 -118.60728 2148.0046
343.51068 -118.55228 2147.8535
344.44626 -118.51881 2148.1367
345.43198 -118.62096 2148.0774
346.43076 -118.75864 2148.2661
302.36954 -117.57348 2148.165
303.38098 -117.55867 2148.0498
304.44122 -117.55867 2148.0498
305.52911 -117.57061 2148.1304
306.40152 -117.51813 2147.8733
343.40665 -117.51948 2147.7944
344.37497 -117.55981 2148.063
345.4209 -117.56203 2148.1299
302.54657 -116.57778 2148.335
303.36566 -116.48781 2147.9912
304.44122 -116.49841 2148.0498
305.54556 -116.52269 2148.1953
306.52359 -116.48125 2147.9939
343.36786 -116.4966 2147.9358
344.37729 -116.49841 2148.0498
345.44485 -116.49666 2148.0332
346.39148 -116.28045 2148.5044
303.772 -115.46814 2148.1353
304.44122 -115.43818 2148.0498
305.51727 -115.44823 2148.1558
306.54837 -115.42944 2147.9709
307.07855 -115.38602 2147.8347
343.33685 -115.43238 2148.0083
344.37726 -115.43817 2148.0498
345.37793 -115.4605 2148.1619
303.83002 -114.79303 2148.2146
305.50146 -114.37793 2148.0498
306.56171 -114.37793 2148.0498
307.22211 -114.36825 2147.988
343.31705 -114.37793 2148.0498
344.25949 -114.49574 2148.0498
305.50146 -113.31767 2148.0498
306.56171 -113.31767 2148.0498
307.2514 -113.3116 2147.9998
342.67624 -113.31125 2147.9709
343.31705 -113.31767 2148.0498
344.0239 -113.31767 2148.0498
305.51834 -112.61693 2148.0986
306.56171 -112.61084 2148.0498
307.26855 -112.61084 2148.0498
343.31705 -112.61084 2148.0498
344.0239 -112.61085 2148.0498
305.55807 -111.55996 2148.1272
306.56174 -111.55058 2148.0498
307.62198 -111.5506 2148.0498
308.58704 -111.15211 2147.9011
343.31702 -111.55058 2148.0498
344.02386 -111.55058 2148.0498
305.85489 -110.49034 2148.0498
306.56174 -110.49034 2148.0498
307.62198 -110.49034 2148.0498
308.63498 -110.46819 2147.9702
343.3172 -110.49034 2148.05
343.85535 -110.50617 2148.1689
305.96985 -109.461 2148.3374
306.56555 -109.43131 2148.0698
307.62201 -109.4301 2148.0498
308.69177 -109.43337 2148.0686
309.25171 -109.39295 2147.9097
343.3168 -109.43011 2148.0498
306.59952 -108.38765 2148.144
307.62198 -108.36984 2148.0498
308.71799 -108.37958 2148.1292
309.26501 -108.34067 2147.8572
340.58957 -108.25504 2147.8752
343.30927 -108.37769 2148.0601
306.6611 -107.71898 2148.2092
307.60394 -107.65115 2147.9546
308.7001 -107.67056 2148.1106
309.30478 -107.63061 2147.7751
340.47241 -107.67809 2148.072
343.16849 -107.83983 2148.3093
306.7471 -107.09995 2148.332
307.73685 -106.71877 2148.042
308.68277 -106.60303 2148.054
309.37518 -106.59426 2147.9395
310.27231 -106.50542 2147.7842
340.49658 -106.60291 2148.0461
308.05441 -105.58676 2148.1912
308.68222 -105.54251 2148.0498
309.38907 -105.54251 2148.0498
310.44299 -105.53822 2148.0298
340.45767 -105.54094 2148.0708
308.68225 -104.48227 2148.0498
309.38907 -104.48225 2148.0498
310.44931 -104.48226 2148.0498
311.40884 -104.43546 2147.8518
339.88342 -104.47084 2147.9622
340.43262 -104.49308 2148.1204
341.52081 -104.48008 2148.0837
309.38907 -103.42201 2148.0498
310.44931 -103.422 2148.0498
311.49368 -103.40996 2147.9783
339.79855 -103.41715 2148.0332
340.48972 -103.422 2148.0498
341.49896 -103.43175 2148.1189
309.43265 -102.36952 2148.1926
310.44931 -102.36177 2148.0498
311.50955 -102.36176 2148.0498
312.63489 -102.21001 2147.9436
339.5397 -102.247 2148.061
340.48969 -102.36176 2148.0498
341.19656 -102.71518 2148.0498
309.44275 -101.30678 2148.1367
310.44931 -101.30151 2148.0498
311.50955 -101.30152 2148.0498
312.57343 -101.30384 2148.0706
313.52499 -101.22493 2147.8799
338.52936 -101.23953 2147.8669
339.38403 -101.3247 2148.1616
340.48972 -101.30151 2148.0498
309.51044 -100.63647 2148.1941
310.44223 -100.58967 2148.0044
311.50955 -100.59468 2148.0498
312.58209 -100.60602 2148.1472
313.61261 -100.58583 2148.0112
314.17331 -100.5087 2147.8391
338.42627 -100.57942 2147.9797
339.42947 -100.59468 2148.0498
340.48969 -100.59467 2148.0498
309.66278 -99.985916 2148.3496
310.46252 -99.541481 2148.0823
311.50955 -99.534431 2148.0498
312.56982 -99.534439 2148.0498
313.63007 -99.534424 2148.0498
314.27075 -99.521591 2147.9448
338.39944 -99.528763 2148.0095
339.42944 -99.534424 2148.0498
340.48969 -99.534431 2148.0498
310.82922 -98.484756 2148.1001
311.50958 -98.474182 2148.0498
312.56982 -98.474182 2148.0498
313.63007 -98.474182 2148.0498
314.29056 -98.466599 2147.9209
338.37378 -98.472801 2148.0388
339.42944 -98.474182 2148.0498
310.85181 -97.443672 2148.1479
312.56979 -97.413925 2148.0498
313.63007 -97.413933 2148.0498
314.33691 -97.41394 2148.0498
338.3692 -97.413933 2148.0498
